# .PCD v0.7 - Point Cloud Data file format
VERSION 0.7
FIELDS x y z intensity
SIZE 4 4 4 4
TYPE F F F F
COUNT 1 1 1 1
WIDTH 1298
HEIGHT 1
VIEWPOINT 0 0 0 1 0 0 0
POINTS 1298
DATA ascii
0.64555049 -2.2153976 -0.17303206 43.75
3.6322477 0.8021208 -0.19101419 1.5
0.13955057 -2.4743011 -0.17337747 25
0.96933472 -1.7887105 -0.16386807 58.75
3.591264 0.79229772 -0.13833137 1
-0.025198936 -2.4260724 -0.17132027 24.5
0.073736727 -2.4477916 -0.21073505 32
-0.10800388 -2.4015665 -0.17068191 29.5
0.39273629 -1.8462499 -0.17098065 39
3.4677498 1.18716 -0.12810576 0
3.572263 1.2388823 -0.19630621 0.5
-0.21654966 -2.3401546 -0.24583535 11
3.6675832 1.652099 -0.13313247 18
3.9367592 1.7672015 -0.096668869 26
3.9065015 1.8702167 -0.1704201 34
-0.41382524 -2.2270277 -0.1499739 100
3.6480501 1.6397301 -0.10966049 18
3.7005959 1.7535013 -0.20557974 10
3.7767441 1.7866873 -0.21039948 9
-0.3783026 -2.1457746 -0.19161004 15
3.3695695 1.9495012 -0.21707143 1
-0.61200619 -1.8708931 -0.19911161 65
-0.52217281 -1.8472606 -0.17329101 54
3.3587675 1.9683055 -0.15794189 4.3333335
3.4321363 2.0338061 -0.10940677 6
3.4752862 2.0837963 -0.18111768 2
-0.65355694 -1.6778291 -0.18091506 29.571428
3.5926762 2.5096989 -0.22457109 8
3.786494 2.6328123 -0.14911024 0
2.4662111 1.6451584 -0.16301665 11.2
3.4684088 2.4569268 -0.11871712 12
2.4320993 1.661307 -0.14149176 27
2.2417755 1.7050475 -0.10238148 1
2.2745199 1.7932485 -0.15156956 1
2.2021286 1.8595306 -0.16299801 9.666667
-2.6973307 -2.6928296 -0.15164901 0
2.1121488 1.9531034 -0.15843186 9.666667
-2.6366332 -2.4730527 -0.16402245 0.5
-2.3991773 -2.3532934 -0.1505345 1
-2.7548559 -2.404388 -0.22076458 3
2.8915184 3.2285345 -0.14850809 29
-2.7820313 -2.2442517 -0.21271211 30.666666
-2.5897262 -2.0143814 -0.26615155 3
-2.5676157 -2.0030084 -0.16600212 1
-2.3963978 -1.834735 -0.15256655 6
-2.2896976 -1.8007158 -0.18121471 8.333333
-2.2030871 -1.678341 -0.24488334 6.6666665
2.6676867 3.2135108 -0.14901651 22.75
2.5885923 3.2074699 -0.16560051 29.5
-2.3849223 -1.448828 -0.22168785 19
-0.005911231 0.96297693 -0.17419222 50.25
-4.3036613 -3.0912764 -0.15851891 1
-2.4654479 -1.4009966 -0.15262769 3.5
-0.04163301 1.0038605 -0.15156661 45
0.059684485 1.197371 -0.16041802 49.875
0.13984452 1.3810436 -0.14287974 30.333334
0.41985816 2.0670753 -0.22222446 3
-0.3050355 1.5317521 -0.15822197 40
0.4739157 2.360002 -0.21197326 2
0.48896155 2.6622992 -0.12135141 10.5
0.45657009 2.6751747 -0.12205356 21.5
-4.1363797 -1.5085672 -0.1792751 33
-0.53156805 1.8808492 -0.12397626 2
-4.1358547 -1.4773747 -0.21259685 21
-1.7724209 1.4184575 -0.12071167 65.5
-1.9258878 1.3968877 -0.13554181 5
-5.1530347 -1.3352586 -0.25196987 6
-1.9557085 2.000869 -0.16103534 25.5
-5.2081404 -1.0396869 -0.21779582 84.333336
-2.0070608 2.0292568 -0.18943581 0.5
-5.4847894 -0.99552679 -0.16040507 26
-2.8496256 1.7314874 -0.12225899 2
-5.8209343 -1.0961992 -0.13541277 17
-2.826185 1.7983562 -0.23601215 18
-2.8670337 1.8750435 -0.21779306 11
-4.3321619 0.66497159 -0.25629622 102
-3.5319712 1.6674916 -0.17248055 8
-4.8312006 0.48251149 -0.19260363 19.6
-3.7093692 1.5587467 -0.17864595 5.4000001
-3.552711 1.6791574 -0.17351899 7.75
-7.1345859 -1.534112 -0.17269753 23
-5.2951708 0.15134969 -0.2127531 33.666668
-5.6644506 0.025437593 -0.21713531 33.666668
-4.3167515 1.5491816 -0.19069576 1.75
-4.8057065 1.4912132 -0.17365605 0
-4.6165557 1.7504283 -0.12613781 0
-7.4458866 -0.91863561 -0.17462128 6
-7.389791 -0.88590783 -0.24108838 7.5
-5.4081707 1.0561982 -0.14794615 10
-4.9025469 1.511492 -0.19895412 0
-5.9205146 0.95497978 -0.16350327 51
-9.1544962 -2.0746021 -0.17257799 12
-7.610075 -0.31786886 -0.17413065 0
-8.2634802 -0.40437111 -0.14094821 1
-8.4719152 -0.15704814 -0.14330184 0
-6.1737733 3.4284439 -0.17988482 0
-7.0152984 6.5101237 -0.17434309 2
5.6157703 -1.2938744 -0.062184058 6
4.7455058 -1.6936724 -0.00044766068 0
5.0854411 -1.3236223 -0.082286052 1
4.3292379 -1.7371453 0.00066950172 0
3.9204459 -1.8796762 -0.05501321 25
4.1505575 -1.751309 -0.022164583 1
4.4550991 -1.4028406 -0.0090664551 0
4.5458221 -1.4000442 -0.047068171 0
5.3866978 -0.44790617 0.0069621224 7
3.7637498 -1.9443517 -0.064111844 39.799999
4.0051551 -1.6558418 -0.064398438 0
3.0959978 -2.3499386 -0.020715967 34
3.9472208 -1.4986829 -0.039314903 5.5
5.1140432 -0.33066607 -0.018763479 24
5.2854285 -0.18880293 -0.048022047 62
2.9761915 -2.3732038 -0.11493994 29
3.85216 -1.5085531 -0.038011059 0
4.9569087 -0.32118344 -0.070378788 12.333333
5.0408721 -0.016303688 -0.015884165 30.666666
2.5349464 -2.2495558 -0.031707257 38
2.5990489 -2.1747954 -0.09716931 24
2.7093801 -2.146462 -0.031896044 30
2.8522387 -2.097445 -0.041512735 29.5
2.5039122 -2.2113934 -0.046860345 34
2.5679333 -2.1804855 -0.030717809 22
2.3020175 -2.2603087 -0.07599254 39
1.3152899 -2.8042934 -0.061567143 86
4.0046473 -0.0067818463 0.0047116447 6
1.2327807 -2.5459762 -0.067243867 49
3.6773937 -0.19200534 -0.1000969 9
3.9127941 -0.04087171 -0.056876943 6.75
4.0149274 0.099093229 -0.048143484 1
4.0978503 0.10882458 -0.071756296 0
0.97059798 -2.6162596 -0.067691177 45
1.0671787 -2.6302807 -0.05547557 35.5
4.021811 0.40074381 -0.025704749 17
4.1367283 0.43808612 0.0062661003 32
4.5025926 0.79588449 -0.0068533495 20
4.5172415 0.83141422 0.018329808 11
0.77189529 -2.6739676 -0.068019323 41.5
0.84056461 -2.6124718 -0.062443629 38.333332
4.2088628 0.76885104 -0.074200675 38
4.4255013 0.89704525 -0.0057746097 15
4.4962139 0.9514941 0.019045927 1
3.7319024 0.39054593 -0.061456628 10.5
3.7500734 0.40078989 -0.061985776 11
0.26921105 -2.8125384 -0.077277623 4.5999999
0.69752133 -2.2851086 0.0029092021 21
1.0804057 -1.9857486 -0.043471545 3
3.889411 0.8060118 -0.076902121 12.5
0.26787272 -2.5618918 -0.081609085 22.4
0.31883121 -2.5477479 -0.088716514 23.5
0.64704013 -2.2108979 -0.063955128 36
3.8139563 0.85850573 -0.021744017 14.4
0.17139527 -2.5063756 -0.06071572 23.555555
0.97113812 -1.7899694 -0.090120956 14.666667
3.5616639 0.7935971 -0.087368399 1
-0.0068264902 -2.4661613 -0.043283343 29.25
0.036823034 -2.4512224 -0.10918103 30
0.39796993 -2.0644681 -0.08155711 7
0.48055962 -1.9531454 -0.078891754 22
4.2376513 1.7712616 -0.027803339 1
4.4144311 1.8328487 0.023497893 0
-0.11190677 -2.4119542 -0.043697834 23.6
0.38722059 -1.8572098 -0.066149235 18
3.4614825 1.1743749 -0.020767674 0.40000001
3.5411096 1.2073615 -0.05912596 1
-0.2026352 -2.3434842 -0.041133277 27
0.34798262 -1.8006144 -0.0049165711 6.6666665
3.6763306 1.640479 -0.042882875 21.333334
3.7196929 1.6653138 0.0020198468 13
-0.3439863 -2.2109118 -0.046770751 35
3.674808 1.6693338 0.025091432 15
-0.42245492 -2.0856681 -0.030218482 44
3.4074516 1.7156428 -0.060093172 1
3.4238181 1.7284573 -0.01725756 3
-0.46231154 -2.0081306 -0.0075020939 68
-0.48112914 -1.9125593 -0.076717056 100
-0.61224425 -1.823023 -0.067326128 68.666664
-0.55230403 -1.7988207 -0.049909778 46
3.4622483 2.1201286 -0.030648362 4.1666665
-0.63254619 -1.6634492 -0.047475398 42.444443
3.5597942 2.4164131 0.015682129 5
3.8424971 2.6474779 -0.079418615 0
2.4559073 1.6409515 -0.090703145 7
2.4047732 1.6626867 -0.032804441 7.75
3.4828467 2.8278966 0.029501654 11
3.5048885 2.851012 0.0031967573 8
2.3121102 1.7439839 -0.072238579 11.333333
-2.4446731 -2.5950572 -0.035892934 2
2.1038105 1.9212543 -0.063258037 10
-2.9017177 -2.5698135 -0.13224576 0
-2.8030756 -2.5143654 -0.055510625 1.75
2.8842006 3.2182631 -0.011232279 24.333334
2.9280646 3.2317648 -0.020214699 44
-2.3637853 -1.8784039 -0.058389977 6.1666665
-2.3507764 -1.8480917 -0.078675084 21
2.6481423 3.1966891 -0.017732956 21.75
2.5755079 3.1854856 -0.017176654 35
-2.4423156 -1.4160236 -0.0033735149 45
-0.0039470792 0.97014463 -0.034287825 59.799999
0.0017782152 0.98419762 -0.043076813 45.599998
-4.3349972 -3.1180851 -0.086032882 1
-2.4606028 -1.3844377 -0.073185027 16.571428
-0.024999976 0.99817193 -0.023784596 17
-0.013281196 1.0832661 -0.038529649 35.888889
0.054110765 1.2093171 -0.043020964 62.799999
-4.3605237 -3.101398 -0.065076575 2
0.010824025 1.2263197 -0.034966309 97.5
0.10680255 1.3959757 -0.017845351 50.888889
0.13201565 1.5402902 0.017090071 22
-0.20781466 1.5851252 -0.069249436 3
-0.31563064 1.5407634 -0.032920361 47.727272
0.4933511 2.6410089 -0.040341966 12
0.59120297 2.6685724 0.030905088 31
0.45031446 2.6449482 -0.034579016 14.333333
0.49536565 2.6810858 -0.023221392 11
-0.53114831 1.8920456 -0.081254616 3.5
-4.1734996 -1.4959362 -0.08504425 25.5
-1.7702379 1.4146329 -0.079420984 10
-1.8991027 1.3790826 -0.03249665 12
-1.788924 1.4292136 -0.036330089 27.333334
-1.9542055 1.9975349 -0.033802088 38.75
-1.9996507 2.0237918 -0.046613842 1
-2.834173 1.7525417 0.013201326 25
-4.3246613 0.66157293 -0.0310634 45
-3.5925741 1.5758213 -0.044506125 72
-3.5257723 1.6638809 -0.060566261 8.666667
-4.8439207 0.42874035 -0.039177112 29
-4.8294802 0.4648678 -0.069425829 28.5
-3.6780214 1.5613332 -0.054867774 17
-3.5416613 1.6709412 -0.01785671 12
-5.2960124 0.15004405 -0.11310533 44
-5.2478061 0.36489061 -0.044917874 11
-5.6803188 0.041105419 -0.017238989 102
-5.2690158 0.34821478 -0.11155735 4
-4.9922528 1.0810388 -0.02186767 20.5
-4.8517404 1.2688277 -0.083483636 10.5
-4.8549948 1.300681 -0.019488599 8
-4.4110799 1.6021472 -0.089294344 0
-4.760067 1.4792931 -0.097354271 0
-7.3911343 -0.88830435 -0.10508931 33.5
-5.4175081 1.0570859 -0.095932536 16
-4.0346313 2.3630576 -0.053264976 0
-9.1871233 -2.092952 -0.088557974 13
-5.0828805 1.9964873 -0.03640306 22
-5.6093516 1.7436045 -0.080807738 1
-5.6463518 1.7839578 -0.044168398 1
-8.3682957 -0.40010515 -0.092097498 0
-10.451719 -2.0262969 -0.13330369 25
-9.3597765 -0.26531392 -0.047836237 1
-7.6219788 2.7551401 -0.066642702 0
-6.9879947 6.6345425 -0.056443267 2
5.6329203 -1.4135544 0.10754482 9.5
4.9339514 -1.8703355 0.025123859 6
5.2222638 -1.5632745 0.11477137 43
5.6213632 -1.3243511 0.045792498 8.5
5.0265698 -1.5333228 0.16686152 26
4.6657043 -1.6533216 0.026139768 0
4.6740246 -1.5122782 0.13035223 15
4.359869 -1.6941001 0.061747588 0.5
4.4489393 -1.6140552 0.11259578 30.5
3.8455355 -1.9348762 0.044573154 17
4.5009985 -1.4667004 0.039486136 0
5.3894038 -0.48286492 0.12330061 4
3.795279 -1.9224246 0.08333686 36.200001
3.9970832 -1.7359883 0.10276983 0.75
5.3457556 -0.33275372 0.06573084 28.666666
2.8689139 -2.4046543 0.054319937 28.333334
3.0801053 -2.2289376 0.15170121 54
5.0919886 -0.18312909 0.14717661 13
2.96736 -2.0618393 0.073571205 33
4.9070473 -0.28632718 0.16812454 21
2.5068743 -2.190608 0.050468408 24
1.3152661 -2.7998679 0.056407675 97.599998
4.0564671 0.020665973 0.058402278 11
4.1562119 0.096036345 0.11509277 26.5
4.2773547 0.17597643 0.15307012 8
1.0024651 -2.9100523 0.11517107 108
1.0522922 -2.8211272 0.077481031 90.5
1.24345 -2.5508604 0.10727063 62
4.6983585 0.83863485 0.069971249 47
0.84385896 -2.8396513 0.061075438 47
0.94297993 -2.6337366 0.025328297 29
1.0659533 -2.5988994 0.025813263 50
1.1585606 -2.5974224 0.026165985 40
4.1178617 0.3699533 0.10609015 7.6666665
4.1217632 0.42241773 0.050912477 25.5
0.88116944 -2.616863 0.033940278 40.666668
4.5209699 0.97780657 0.069868416 4
0.59616458 -2.6008248 0.075661629 32
0.5110203 -2.5875714 0.075008541 41
0.72781205 -2.3299665 0.061260972 17.5
0.6343385 -2.1957474 0.051293164 31
3.7525389 0.85340297 0.094343826 10.833333
0.14912306 -2.526938 0.060851704 38.333332
0.59623259 -2.1425312 0.030077439 45.5
-0.034142435 -2.4607642 0.06815201 26.666666
0.46284416 -1.9297624 0.029323317 53
3.6626334 1.1833298 0.12914282 7
4.3482842 1.7787689 0.04981542 3
-0.12948909 -2.4082229 0.059473731 29
0.43971679 -1.8867173 0.04642557 25.5
0.41544953 -1.8349833 0.066335171 30
3.473043 1.1313373 0.04353638 1
3.6536005 1.256788 0.076830491 7
-0.25437668 -2.3102574 0.075917482 32.5
0.32334849 -1.7739271 0.028800122 5.25
0.32045537 -1.7228872 0.078761399 33.200001
-0.32554647 -2.2251759 0.049880724 27.666666
0.26980999 -1.671906 0.12098463 8
3.6354027 1.6928748 0.092947535 17
3.6522236 1.7143294 0.10701683 6.4000001
-0.49185762 -1.8788413 0.11860085 42.5
3.5567248 2.1008134 0.14472345 16
-0.59391141 -1.8835464 0.076016814 32
-0.60577798 -1.799287 0.099153101 58
3.5229948 2.145231 0.074639015 6.6666665
3.7949238 2.3899343 0.16872646 1.5
-0.63920867 -1.6738946 0.073379457 43
3.5073986 2.4298398 0.052793287 22
3.5711236 2.4707484 0.1285118 7.8000002
3.4701512 2.8001456 0.10723598 21
3.5283284 2.8909357 0.13604155 16.666666
-0.87789285 -1.4297655 0.059370987 1.5
3.7136221 3.4264152 0.17851943 1
3.7821746 3.3676269 0.11914813 29
-2.7587659 -2.533884 0.01653387 1
-2.9289331 -2.6566696 0.074126765 0
-2.7782044 -2.5372069 0.04978342 0
2.8977439 3.2256 0.095750928 35.5
-4.2388144 -3.5958202 0.12568521 1
-2.3668008 -1.8490267 0.042706147 21
-2.3707521 -1.8003458 0.13700275 19
2.6417787 3.1877434 0.09761475 23.666666
2.573529 3.1818657 0.080762595 38
-2.4369485 -1.4372185 0.13602498 26
0.013950825 0.99580693 0.084499598 57.5
-4.336338 -3.1121778 0.082603112 1.6666666
-2.4690394 -1.4099408 0.057975531 12.333333
-0.014043093 1.1048882 0.071448795 43.400002
0.036032528 1.2283243 0.037559725 37
-4.3653784 -3.1063709 0.030082164 2
0.025563449 1.2456292 0.10185634 44.333332
0.087434441 1.4251368 0.086746909 23.6
0.11667594 1.5318682 0.085499808 12.333333
-0.33437452 1.5595951 0.088000283 39.714287
0.47151226 2.6338222 0.083824173 7.6666665
0.43401426 2.6296899 0.12780601 2
-4.2448883 -1.4870057 0.037638254 18
-1.96433 1.415448 0.15599146 2
-2.0226181 1.4579146 0.083999783 0.5
-1.9616833 2.0007315 0.10556552 36
-2.0084634 2.0371454 0.088990539 4
-4.3154216 0.65690637 0.081113234 73.5
-2.9493983 1.9154671 0.10735342 0.5
-2.8858948 1.9202398 0.15350667 0
-3.5156841 1.6290029 0.094997503 53.799999
-5.2816992 0.10656634 0.052347049 54
-3.6920323 1.5604426 0.093812265 32.333332
-5.322413 0.19292483 0.0755959 38
-5.6582985 0.0073502362 0.088297337 22.4
-5.3565536 0.28561845 0.10434622 46.5
-5.5695839 0.51169753 0.11471663 28.666666
-5.4880881 0.54346073 0.091199756 24
-5.4591866 0.72565365 0.12715852 38
-5.043509 1.1433911 0.027111245 32
-4.8324156 1.2688918 0.060290389 38.333332
-5.4783082 0.74927461 0.16241014 54
-4.9358521 1.2757765 0.12557417 3
-4.0373745 2.3415787 0.15860672 0
-4.0475626 2.371819 0.12897998 0
-5.5435958 1.0677042 0.096665159 48
-9.1975851 -2.1850936 -0.0044997036 12
-8.1245737 -0.93781698 0.055927053 2
-5.1566615 2.0071251 0.10331911 5
-10.000699 -2.0869458 0.055802707 21
-8.6721191 -0.27930385 0.062618293 0
-8.5145473 -0.2136001 0.1143398 1
-9.3128061 -0.3340725 0.008377742 0
-6.1431189 3.4071617 0.041001603 0
-7.3362517 6.5592723 0.12142026 2
-7.4055462 6.6782489 0.18426634 1
5.1582193 -1.673043 0.22838007 10
5.2561779 -1.2522831 0.17418309 2
4.2140603 -2.0521851 0.19243939 14
4.3686056 -1.644789 0.26888442 1
4.3915577 -1.6367702 0.19670065 1
5.3698039 -0.48339814 0.23916408 5
3.8729472 -1.9064808 0.24421051 19
4.0098376 -1.7449642 0.21584702 0.5
2.8534131 -2.3961256 0.27644062 25
5.2601666 -0.12318304 0.18043667 41
4.3531289 0.14240012 0.20172808 25
1.317587 -2.794718 0.19076779 79
4.3198452 0.15204635 0.27011165 1
0.93652272 -2.9033573 0.21868713 101
4.301096 0.30392751 0.23641379 7.5
0.65624362 -2.8013632 0.20682339 47
0.82472932 -2.4702723 0.27176896 14
0.48756686 -2.5964596 0.2802158 34.5
0.74971318 -2.3697646 0.21809603 21
3.8359807 1.0205137 0.26136655 24
3.8034947 1.0348719 0.19492944 9
3.7981462 1.1753463 0.1980301 15
-0.066939533 -2.4826758 0.27138332 33
3.7371037 1.1466775 0.25974217 2
-0.14401278 -2.4274788 0.26721853 13
0.31466627 -1.7062974 0.2149611 28
-0.32534459 -2.2314541 0.17175716 19
0.24072376 -1.6189636 0.20302686 10.5
3.7386537 1.8849119 0.25079247 11
3.8817296 2.2330959 0.30771255 1
3.7924862 2.2701008 0.26741514 1.5
4.1532521 2.7145474 0.2556943 1
-0.6035167 -1.8487087 0.19282249 49.5
-0.61486304 -1.8028471 0.22495283 56
-0.62607765 -1.6291116 0.21007355 20
3.616039 2.54707 0.23246197 3
3.7183561 2.6830835 0.32011575 12
3.5769086 2.7444334 0.31678724 7
3.5300579 2.8531754 0.24064948 8
2.897747 3.2125454 0.31413251 49
-4.2163033 -3.6043899 0.19062079 1
-2.2794297 -1.6623077 0.25248104 1
2.6362934 3.1703625 0.30286175 36
-2.4102981 -1.7600836 0.1921348 8
-2.3805938 -1.5725654 0.25747663 0
-2.4528897 -1.5345254 0.19062531 33
-4.3289232 -3.108918 0.18784845 1.5
-0.033497185 1.2652164 0.24950069 39.5
-0.29147062 1.6281365 0.2148556 37
0.43937638 2.6288049 0.22523367 5
-0.53797424 1.8821155 0.18479775 1
-1.9398556 1.3953701 0.27478042 1
-2.019455 1.4572173 0.21217486 1
-1.9519513 1.9934698 0.27321434 40.5
-2.9385071 1.9056052 0.27217239 1
-3.5090609 1.600474 0.24995141 59
-5.2716908 0.10469791 0.18443973 67
-3.7177429 1.5486578 0.25725091 1
-5.6535363 -0.0078988969 0.19372453 32
-5.3824763 0.29849473 0.22333522 22
-5.4432821 0.5323025 0.19364996 39
-4.336576 1.6461662 0.24160691 0
-5.4697132 0.72612071 0.19671597 56
-4.4801397 1.568397 0.18388267 0
-4.0939512 2.3549328 0.19054723 0
-5.542789 1.0658711 0.16759668 55
-8.3009233 -0.94740427 0.18312745 0
-5.7976508 1.9798595 0.18566863 2
-9.9963961 -2.1126845 0.20856391 16.5
-9.1340666 -1.1340321 0.28070998 2
-8.6316938 -0.26286191 0.21984881 0
-8.4810925 -0.22125167 0.21699865 0
-10.743471 -1.7599863 0.22364168 1
-7.4135494 6.6299305 0.30571085 2
5.5775642 -1.3474164 0.33775264 7
5.0790825 -1.7046797 0.31053632 39
5.3838158 -0.53837991 0.44420916 1
3.8451064 -1.8952399 0.33072817 34
5.3577909 -0.37954357 0.32650203 25
2.9410582 -2.0844855 0.3955999 34
2.5680063 -2.191848 0.36486739 28
1.3239381 -2.8242185 0.32970548 72
4.3628492 0.27152118 0.36919916 1
1.2456982 -2.5603313 0.43569463 48
0.75729942 -2.6934524 0.29540813 47
0.81633443 -2.4699671 0.39675707 18
3.7873318 1.0271145 0.3454411 1
3.744082 1.1636635 0.34762555 1
0.26011181 -1.6333703 0.34696662 67
3.7114546 1.8908569 0.38004827 3
0.200875 -1.5674798 0.33178234 10
3.6118624 1.9755007 0.37785053 3
-0.63341653 -1.7067391 0.31540149 71.5
3.7214904 2.6854217 0.42702562 3
3.5725403 2.7827566 0.42417109 2
3.7376688 3.4260778 0.35727286 10
2.8820741 3.21381 0.41677028 40
-2.2551954 -1.6860613 0.37177151 1
2.6247923 3.178051 0.40202343 30
-4.2425294 -3.5285716 0.32025474 2
-2.3325801 -1.553619 0.3745088 1
-4.3471417 -3.1190283 0.31550854 2
-0.010071695 1.1233152 0.32516003 13
-0.00041744113 1.4319096 0.38189244 14
0.42860028 2.6735544 0.42732966 1
-2.0122571 1.4499406 0.40711266 0
-1.9464633 1.9857956 0.44905698 40
-2.2683206 2.100177 0.3370651 0
-3.5276403 1.644039 0.3938849 10
-3.711555 1.5625374 0.40336651 21
-5.6566658 0.013261735 0.37025595 51
-4.2795606 1.4497491 0.32285887 13
-9.1347857 -1.1298484 0.3917743 2
-10.441819 -2.1516237 0.31228232 8
-9.352746 -0.26863608 0.40526307 2
5.6282969 -1.3764451 0.46576536 3
4.3168168 -2.0342875 0.5458445 23
0.80564874 -2.4540815 0.57205325 21
-0.30703858 -2.2800741 0.54514128 32
-0.63268483 -1.6558524 0.44550145 63
-4.5866866 -4.0976357 0.49570173 12
-4.204999 -3.5968366 0.45084065 1
-4.3233266 -3.1279762 0.44156194 1
0.022192478 1.152264 0.46664578 89
-0.54302633 1.8691519 0.48940688 1
-1.7800956 1.4058813 0.5497393 44
-2.8141563 1.7357436 0.50800389 25
-3.5330327 1.6619774 0.57726181 13
-3.6952744 1.5523292 0.58787102 2
-5.6604972 -0.0086689591 0.51181972 15
-5.4382963 0.42740962 0.50101632 12
-4.0477128 2.3691308 0.46440387 0
-5.0402532 1.9744691 0.51631761 1
-9.994648 -2.1119843 0.42272466 11
-9.1306248 -1.1340272 0.55842805 1
5.5923891 -1.3150883 0.68015504 1
5.1891565 -1.4357339 0.63269538 30
3.9447653 -1.8679055 0.72565079 20
1.3119551 -2.7980576 0.69794273 57
3.6785951 -0.17448339 0.63810587 5
0.74814403 -2.9710646 0.701837 50
1.0421401 -2.6697488 0.64242131 38
-0.040134877 -2.6178877 0.61167794 62
4.3173251 2.8969319 0.68945706 23
4.0466537 3.2566371 0.69684052 39
-4.2132463 -3.5813565 0.68020505 1
-4.3239846 -3.1078322 0.66384214 1
-1.9699318 1.992148 0.65181744 36
-4.3570013 0.62758648 0.62001747 24
-4.1829262 0.7746923 0.60482132 1
-4.132421 1.5906585 0.63799387 0
-9.7525806 -3.8753529 0.60596108 12
-4.7344966 1.5246702 0.7016834 7
-6.4472556 2.1771348 0.6276359 0
-9.3451099 -0.30389723 0.57481802 1
4.5749383 1.2872874 0.87261277 12
-4.6196165 -4.0992417 0.75326288 12
-4.8727927 -3.2322233 0.72819656 1
-1.9240491 1.3913305 0.81863874 4
-1.7949166 1.4155695 0.7962839 11
-3.5615356 1.6582168 0.84511453 9
-5.4888349 0.039981306 0.74089938 21
-9.1357183 -1.1326225 0.78191102 2
-9.3576422 -0.30538183 0.80328351 1
-9.9099684 -0.048049629 0.84959936 10
5.657671 -1.500706 1.0121108 39
5.3974781 -0.50727391 0.95119298 1
4.4094782 3.1153898 1.0366219 64
1.2313896 2.7966046 0.9413383 25
1.3829372 2.857444 0.96898055 31
-1.9576931 1.9929394 0.93775028 37
-9.7292585 -4.0253754 0.85760111 13
-9.9951344 -2.1521769 0.85276818 18
-10.907972 -1.8667675 0.92331934 1
3.9595737 -1.8619989 1.0585979 55
-4.2260222 -3.638597 1.0194335 1
-4.3316698 -3.1360636 0.98978072 1
-2.8566709 1.8575226 1.0955211 1
-5.6746235 0.032439619 1.1244017 2
-5.0082641 1.5410349 1.0746663 0
4.7197251 0.62548149 1.2391845 23
-2.5021043 -3.7908623 1.1856443 6
-4.6310654 -4.1341505 1.1277876 5
-3.6331382 1.5509746 1.2295417 54
-3.5595303 1.6532062 1.2252314 12
5.1647472 -1.4533337 1.3412881 11
5.3940396 -0.52690971 1.3803838 0
5.082037 0.52324736 1.3281994 101
4.6300983 2.1426446 1.3833028 33
4.3541093 2.1691816 1.3239433 9
4.2839112 2.3415008 1.3353797 10
-9.9793682 -3.2469447 1.3046438 18
-9.9817953 -2.1194086 1.2833698 18
-10.008454 -1.2439872 1.2797642 12
-10.047886 -0.082716495 1.2893693 13
5.6565886 -1.3320248 1.4663014 6
-4.895267 1.6646677 1.5498792 0
-4.6552672 -4.1306915 1.6656578 3
-6.1043911 0.90798748 1.7958291 34
-9.4662399 -0.1394352 1.8046297 27
-9.6061583 -2.7040844 1.8579564 30
-9.6430397 -1.9921954 1.844986 27
-6.4424949 -4.0524898 2.0571973 10
-6.4437418 -3.2133901 1.967886 5
-6.6706514 -2.6682622 1.9785513 2
-9.5603724 -4.8960657 1.9623526 9
-10.006979 -4.7978721 2.0296264 36
-6.9303303 -1.5951647 1.9866782 3
-7.0082846 -1.0100031 1.9927392 2
-7.0520263 0.099416882 2.0108595 4
-7.5089989 0.37872145 2.1403282 65
-8.0751104 -1.5129997 2.2852788 25
-8.0424776 -0.82871443 2.2653377 29
5.1229668 -1.3461537 -0.87593508 5
4.9447689 -0.63722348 -0.82160562 30
3.6510253 -0.70988661 -0.83526748 1
-0.76414919 -1.8478746 -0.88745874 8
-4.3386321 -3.6615367 -0.93044353 1
4.3402514 2.1349304 -0.84492075 8
-6.4626541 -0.19035508 -0.91985995 1
-6.8642678 5.4603281 -1.0394799 0
-6.9121084 6.3364687 -0.96042192 1
4.3152332 -1.3151206 -0.72567183 1
2.5612943 -2.1639678 -0.72817385 13
4.6241956 -0.35503447 -0.7584936 31
4.5164127 -0.227272 -0.73819149 21
1.5692803 -1.4732101 -0.69731712 5
4.5343971 0.34814948 -0.75190967 19
-2.3038037 -3.3666072 -0.8202076 33
4.4774923 0.8241908 -0.76186013 1
-2.7764993 -2.9238634 -0.83262396 10
4.3274031 1.1572204 -0.75575405 0
3.8868132 1.1538 -0.67867744 30
4.0578017 1.4113646 -0.72904152 8
4.0694408 1.7565043 -0.76283908 7
3.8702164 1.9909227 -0.75583839 15
-2.1614521 -1.3962636 -0.78700477 10
3.5151768 1.9402936 -0.69601291 0
-2.1822631 -1.3209517 -0.78492957 6
-2.3652723 -1.224203 -0.82653213 1
3.3511362 2.9523993 -0.80967987 1
0.1155951 1.2582195 -0.73278141 81
2.8351619 3.2526031 -0.79952842 11
-6.4962068 -1.6858191 -0.80441213 27
-4.2783155 0.49365366 -0.76330966 5
-5.2871242 0.18281049 -0.76020074 34
-5.6579971 0.067620069 -0.81015927 23
-7.4094372 -0.80446512 -0.89832687 1
-6.9568882 -0.20803542 -0.84253359 23
-4.2091603 1.4477375 -0.7904557 1
-3.9526129 1.5646594 -0.7574954 0
-7.4824643 -0.36463577 -0.90473294 2
-3.9687514 1.7212775 -0.76968616 1
-3.8049641 2.4877255 -0.80295575 5
-4.5595837 4.3333182 -0.88442284 0
-6.7142353 6.1556334 -0.82022047 2
5.0239143 -1.4774556 -0.52226007 2
2.7876368 -2.1321342 -0.53482658 28
2.9032335 -2.1150186 -0.55008906 18
3.4958737 -1.7814484 -0.61169785 19
4.9445839 -0.65342575 -0.62239069 28
0.89056522 -2.6066468 -0.61231887 42
3.8758349 -0.82115859 -0.62418032 1
4.6385193 -0.35466591 -0.57580489 32
5.2063084 -0.074815571 -0.52451444 12
4.5057888 -0.21369398 -0.55662364 7
0.86612904 -1.8035111 -0.67296487 9
-2.3109403 -3.248394 -0.6251201 45
3.8015201 0.47767949 -0.62110621 8
-2.7756925 -2.9214795 -0.64808595 11
3.5832095 0.7204482 -0.59467351 14
-4.1594081 -3.4757934 -0.72978199 1
3.4510274 1.2602293 -0.61391246 0
3.9335396 1.7117503 -0.55727416 3
3.9868665 2.0347192 -0.58998728 10
-2.3943458 -1.5475893 -0.61819291 0
2.3786857 2.145853 -0.57312787 1
-0.072024673 0.9354313 -0.61692405 41
0.20369899 1.1459773 -0.67290622 100
1.5071626 1.8606215 -0.63704169 13
-5.0362487 -1.7456307 -0.74837029 46
1.0346245 1.7697186 -0.57194036 1
-6.4834137 -1.7059577 -0.70162612 44
-5.2034445 -0.96167898 -0.6960004 34.5
-4.3172154 0.74299496 -0.63818079 8
-1.9619023 2.0566368 -0.67024463 9
-5.2757039 0.20164239 -0.64597505 43
-5.2216477 0.39725316 -0.64165372 10
-4.0429258 0.96523696 -0.74101627 6
-6.1203279 -0.0041036606 -0.69674903 17
-3.9003716 1.5060456 -0.61187708 1
-3.5246575 1.7209656 -0.70303494 8
-7.2347054 -0.30791843 -0.71968508 5
-4.9856825 1.1773226 -0.62973982 21
-4.3012128 1.4652107 -0.66150749 0
-4.9902225 1.3643312 -0.74752671 1
-4.9400735 1.5167332 -0.74674797 9
-4.7499332 1.5940843 -0.61631972 0
-4.0147433 2.4275792 -0.67861813 0
-3.8165736 2.494211 -0.65980655 1
-6.1056805 3.4462488 -0.64719534 0
-7.0005331 6.4327974 -0.70771492 1.5
-6.9839826 6.5895271 -0.62432086 3
5.1784949 -1.4998081 -0.37563241 0
5.2987647 -1.4044673 -0.38315901 13
2.7994952 -2.4311209 -0.43589225 23
3.0282776 -2.3736198 -0.45497489 20
3.2250614 -2.2324336 -0.46439961 13
3.620899 -1.8821466 -0.38629201 1
3.7575796 -1.8778093 -0.50322503 0
2.4456496 -2.2308009 -0.49927118 42
2.6667366 -2.1270423 -0.51644158 17
2.3394282 -2.2328854 -0.48545554 34
3.9618566 -1.0985216 -0.39002445 21
3.8419847 -0.9863103 -0.47067466 0
4.7136583 -0.41466004 -0.38335979 6
0.81724572 -2.6184394 -0.4287385 42
3.9467361 -0.7078318 -0.47895661 2
1.1529753 -2.1399422 -0.50314146 38
4.505096 -0.22802728 -0.44204631 21
0.58345366 -2.2315524 -0.49942151 32
3.7179151 0.035114378 -0.44494969 1
-2.3027644 -3.3224566 -0.51779521 30
-0.38628235 -2.2335293 -0.5589487 11
3.7129271 0.33703136 -0.45123851 1
4.4568472 0.77326232 -0.45392618 12
3.9752374 0.82694584 -0.40218768 2
-4.1337738 -3.74733 -0.48638168 1
3.6057634 0.72837883 -0.45165217 8
-4.1512384 -3.7127731 -0.55299342 1
-0.63026333 -1.6462395 -0.45570067 21
-2.1143055 -1.274322 -0.54267681 9.5
3.4123156 2.0816708 -0.42040533 9
3.8777795 2.5848496 -0.45718944 9
-3.9865842 -1.7290163 -0.51705772 7
2.0903418 2.0562553 -0.39903834 5
-4.1013474 -1.447051 -0.48756614 9
1.4994164 1.8472743 -0.43907681 21
0.14315873 1.1916933 -0.40737277 77
0.2238459 1.4198158 -0.46545935 12
-0.088871688 1.4746244 -0.50199169 38
0.26124114 1.6141307 -0.51757765 2
-0.077403277 1.6659024 -0.55222368 7
-5.3404107 -1.3373539 -0.5090577 1
0.31560141 2.0949578 -0.45389187 11
0.6893276 2.1705105 -0.46641213 11
-6.4755964 -1.7572114 -0.49468073 45
-5.1911364 -0.96995533 -0.49061629 56
-0.53560686 1.940352 -0.4722825 0
-4.3211694 0.72597915 -0.54233164 21
-1.9604384 2.0516994 -0.51796371 5
-5.2820153 0.202434 -0.53001213 39.5
-4.8087525 0.53079134 -0.51849222 19
-7.4019551 -0.80034757 -0.50752473 2
-6.0945172 -0.0063925683 -0.53154188 11.5
-5.2627039 0.42309093 -0.53001058 23
-3.6479459 1.6221352 -0.58585805 40
-3.516289 1.7151029 -0.48696199 8
-7.3577752 -0.4986586 -0.50329071 1
-4.0050335 1.5124319 -0.53087175 0
-3.5415809 1.7288616 -0.57852268 8
-4.9901967 1.1792355 -0.54896092 18
-4.2733722 1.4725544 -0.48609129 0
-4.9007978 1.3349574 -0.47809359 1
-4.0561886 1.7606151 -0.54681349 0
-3.8938107 2.3527148 -0.55911422 0
-4.0355277 2.4412076 -0.50241792 0
-3.7954121 2.4693584 -0.51904362 5.5
-6.9106383 6.1470442 -0.57527697 7
-6.9965024 6.4506469 -0.50214237 2
-7.0023551 6.5574913 -0.56481177 3
4.9348884 -1.4563227 -0.30098563 1
5.1206617 -1.415626 -0.25696293 1
5.3103909 -1.3717701 -0.32531357 1
3.8014698 -1.9575369 -0.28343865 0
3.7199559 -1.9595401 -0.23487453 3
3.7384679 -1.8840327 -0.32778001 0
2.8177602 -2.1175232 -0.26520342 17
2.9555776 -2.0505526 -0.33075872 38
4.0946712 -1.000268 -0.2804929 6.3333335
5.1207972 -0.38953337 -0.28692472 10
0.95478141 -2.6507523 -0.33400074 44
4.714376 -0.44538459 -0.27251077 23
0.86659878 -2.623975 -0.32809165 37
3.6474421 -0.76782137 -0.23683654 2
3.9007571 -0.60074812 -0.28092989 1
4.5096493 -0.20989507 -0.30860254 8
1.149981 -2.1294703 -0.3044337 61
0.096087307 -2.486619 -0.31328812 29.5
0.58763444 -2.2301145 -0.30577073 26
-0.05692181 -2.4472325 -0.31355464 27.5
0.90168262 -1.7911265 -0.26874518 92
-0.18563733 -2.4018698 -0.31325474 17
0.88987732 -1.782598 -0.38658985 15
3.70367 -0.01237762 -0.29213539 0.33333334
-2.2953215 -3.3122041 -0.38395593 36.5
0.3367089 -1.865896 -0.33793584 32
-2.2870839 -3.3047316 -0.37766227 22
-0.46389571 -2.1441765 -0.29474354 19
3.5865843 0.23228067 -0.27808908 1
3.7556028 0.43045914 -0.30414632 3.6666667
-4.3713999 -3.9893062 -0.41129825 8
-0.60620236 -1.7215259 -0.32873771 80
3.5936956 0.73683542 -0.26790804 1
-2.8083928 -2.9283786 -0.39391437 1
-0.64332545 -1.6616843 -0.32427409 60
3.4730012 1.2463205 -0.25295439 1
3.8236792 1.6144848 -0.3499389 12
3.7480669 1.68084 -0.29176775 31
3.7208846 1.7752404 -0.24885647 12
-2.3468564 -1.3476684 -0.31883061 18
-2.1689579 -1.222126 -0.4268004 11
2.428545 1.4557922 -0.36034453 10
2.4534798 1.4784384 -0.28882688 3
3.3407214 1.9563587 -0.27909487 1
3.3689501 1.9709344 -0.2865161 1.5
-2.3389602 -1.300071 -0.37400964 24
3.6306725 2.5128646 -0.2293561 11
3.8239968 2.5599105 -0.29167435 1
-3.9477005 -1.7834754 -0.3122927 6
3.7242324 2.7417681 -0.34890512 2
-4.3225121 -1.9227927 -0.43034056 0
-4.4413819 -1.7394145 -0.43611875 3
-4.0911369 -1.5041902 -0.31711048 34
2.0733888 2.041364 -0.2861577 20
-4.1201735 -1.4946318 -0.3466005 25
-0.06645909 0.97948724 -0.36944851 51.5
2.1729302 2.3369567 -0.28887844 3
2.324995 2.2821751 -0.29170269 17
0.044478208 1.2183883 -0.29266199 54
0.10807389 1.2436125 -0.2939288 42.5
1.4575759 1.9427872 -0.34236956 8
2.2334242 2.4080224 -0.36219096 0
0.17948622 1.4145648 -0.32388836 36
0.23192586 1.6071994 -0.31618124 15
-0.30555227 1.5309708 -0.37728643 1
-0.3071489 1.5515594 -0.29038444 5
-0.12791839 1.6757236 -0.29755867 65
2.6694977 3.2344449 -0.25826091 20.5
-5.5630751 -1.4622011 -0.4595255 8
0.34500581 2.0723438 -0.30699813 33.5
0.74434942 2.2018521 -0.28686395 1
-6.4852686 -1.7238593 -0.41219947 48.666668
-5.7730274 -1.3902066 -0.43824384 14
-5.2040524 -1.012449 -0.42549041 50
1.3536786 2.8575785 -0.31705996 4.3333335
-7.1839118 -1.4890032 -0.40790066 39
-5.2908058 0.16282988 -0.344915 30.5
-5.271914 0.19958991 -0.39427146 64
-4.3179579 0.70516926 -0.32811376 74
-1.9742643 2.0634966 -0.35705239 8
-1.9390494 2.0544794 -0.36228457 56
-5.2732167 0.20081335 -0.4279885 51
-5.2223778 0.39612681 -0.40840283 15
-4.8130784 0.52127039 -0.42493016 25
-7.6273808 -0.87156707 -0.42885667 4
-7.4516034 -0.83310819 -0.41894725 5
-6.106204 -0.017545938 -0.39788386 11.75
-5.3136244 0.3879416 -0.36431837 42
-4.9303555 0.68543786 -0.40466148 31
-3.8702159 1.4931302 -0.44772634 1
-3.6712589 1.6144662 -0.37938643 21
-3.5249801 1.719234 -0.37113023 7.5
-7.7204251 -0.70589006 -0.43342829 7
-7.5990396 -0.50353527 -0.42587742 9
-6.9148145 -0.21105611 -0.34339449 44
-4.1957569 1.4237428 -0.41865093 0
-3.5413463 1.7272897 -0.37269613 4
-4.9817805 1.1138902 -0.38177803 25
-4.2849808 1.5900173 -0.34108534 1.6666666
-4.9959335 1.3514769 -0.38669646 4
-4.7496982 1.4898977 -0.37159511 0
-4.8471608 1.5228865 -0.31351039 0
-4.6079197 1.8678966 -0.36998695 0
-4.045085 2.4444661 -0.44136763 0
-6.1168351 3.4491322 -0.38204503 0
-6.9782686 6.3859663 -0.4408254 2
-6.9837718 6.5863218 -0.35747764 2
5.545856 -1.3047265 -0.098567739 49.666668
5.4304252 -1.3068709 -0.16969384 21.5
4.8980961 -1.4275267 -0.14422466 4
5.0209208 -1.3448685 -0.086349115 1
2.72558 -2.4320207 -0.20012011 34
2.8720722 -2.3799069 -0.14942434 35
3.7184286 -1.9565353 -0.12831178 33.599998
3.8579752 -1.8827021 -0.17531414 1
3.2281647 -1.9409294 -0.20374472 32
3.679179 -1.8291106 -0.18592602 1
2.5152447 -2.2605562 -0.11419857 26
2.5703034 -2.2041159 -0.13033052 40.333332
2.8768125 -2.0883915 -0.1413023 35.599998
2.4687967 -2.2035887 -0.12637824 29
4.0876069 -0.99395484 -0.16860102 1
5.0136619 -0.49977747 -0.10757197 7
5.1658077 -0.40686032 -0.16693181 4
0.9338553 -2.6414857 -0.13115378 39
4.0923591 -0.89107001 -0.16760544 1
4.1216936 -0.79683352 -0.12495571 16.200001
4.9406648 -0.34883377 -0.091893256 30
0.72368407 -2.6320674 -0.16704714 39
0.86710405 -2.6382651 -0.13071479 45
4.9587836 -0.24598433 -0.21057762 18
1.1606455 -2.152308 -0.16638562 48
3.6587284 -0.77489376 -0.18110482 1.5
3.8868961 -0.61809617 -0.10383391 8
4.0070133 -0.58698595 -0.17600402 0.5
4.4823561 -0.25019038 -0.16152385 12
0.19540215 -2.5639374 -0.14383018 28.5
1.1489388 -2.1218219 -0.15577869 98.5
0.10390714 -2.5020804 -0.1902882 24.666666
0.58602935 -2.2282655 -0.16338696 42.25
-0.12446055 -2.4388058 -0.15681225 29.333334
0.90319169 -1.7892578 -0.17983329 47
3.6590044 -0.18168691 -0.10952444 11
3.8630486 -0.050710171 -0.10211104 12.5
-0.29144755 -2.349195 -0.20227359 26.5
3.7047315 -0.032310277 -0.15774113 1.75
0.33777943 -1.8676636 -0.17060576 62.333332
3.7268884 0.094020754 -0.087670863 1
-2.2494709 -3.1200335 -0.15779532 5
3.5883956 0.24395818 -0.14870715 1
4.5775499 0.83915037 -0.19876911 49
-2.7280235 -3.3688462 -0.18398303 5
3.7202022 0.41649324 -0.099326059 1
3.7417958 0.4457221 -0.16469583 13
-2.3716297 -2.920989 -0.26070693 10.666667
-0.58121717 -1.8378694 -0.17088716 70.5
3.9059293 0.81849438 -0.07915093 5
4.1787853 0.88108391 -0.12197445 30.5
-0.62453878 -1.7227576 -0.1446345 44
-0.62925863 -1.6616898 -0.19325767 51.5
3.5948257 0.78672498 -0.1674376 3
3.8319025 0.87295943 -0.077696234 15
-0.61647677 -1.6365404 -0.17791538 50.5
3.5561917 0.80359989 -0.1173709 1
3.4493763 1.1557636 -0.090891391 1
3.5164666 1.2200143 -0.13421649 1
3.6264882 1.2573287 -0.18136123 0
3.4874251 1.2682986 -0.2146989 2
3.9253838 1.7579021 -0.18899873 67
3.7387276 1.7874269 -0.19321015 11.5
3.8702722 1.8726926 -0.14271118 27
3.911118 1.8810987 -0.16828218 27
-2.4747598 -1.4274807 -0.25467375 9
-2.3380454 -1.3767693 -0.17160323 12
-2.2738521 -1.4075091 -0.18527023 14
3.3576086 1.9948356 -0.15133549 1.8
2.3328097 1.5168049 -0.21192472 11
2.453804 1.6604345 -0.14234796 9.5
3.4365091 2.1037176 -0.090504318 2
2.1823995 1.6555638 -0.10088922 0.5
3.7659495 2.4715734 -0.18245883 31
-3.9901457 -1.7621946 -0.28755093 5
2.2121599 1.8088381 -0.13264817 8.5
2.2728095 1.7827594 -0.11691853 2
3.4640837 2.4594588 -0.124019 12
3.6264644 2.5691118 -0.18138976 0
3.7513015 2.6429346 -0.13637732 0
-3.9846406 -1.6578548 -0.28521952 1
2.1154344 1.9358954 -0.13129564 11.6
2.0997744 2.0187223 -0.19913436 8
2.2764888 2.1050107 -0.12298125 1
-4.1667109 -1.5225887 -0.29498586 2
-4.1118903 -1.4413359 -0.22160266 28.75
-0.012464374 0.98583454 -0.17849587 54.25
0.021004856 1.2139945 -0.16550404 60
0.097144604 1.235199 -0.16452099 66.25
0.14143983 1.4196818 -0.1703061 47.200001
0.19129571 1.5934753 -0.18135783 20
2.8749199 3.2376423 -0.088022843 25
-0.31332436 1.5709062 -0.19839548 11.333333
2.6472709 3.2251022 -0.15898672 24.200001
-5.3087764 -1.2916114 -0.26648423 1
-0.32120362 1.5825515 -0.14212137 17
0.36071768 2.0768938 -0.2083462 25.5
0.72667718 2.2095201 -0.23749037 2
-5.1817079 -0.98932326 -0.22483356 83.333336
0.53306943 2.3380687 -0.21308355 5
1.3686777 2.8872428 -0.1878987 3.6666667
-6.5268068 -1.7169044 -0.33163023 102
1.3393832 2.8998816 -0.13602664 2.6666667
0.66181201 2.7287941 -0.1669717 29.5
0.81323904 2.7731416 -0.13253272 1
-1.9127389 1.4367933 -0.2052003 3.5
-1.7789453 1.4647558 -0.16616634 45.333332
-1.9953545 1.4716923 -0.2030538 0
-5.2780714 0.16056079 -0.2937651 27
-5.2566433 0.16801971 -0.22573657 38
-4.3219204 0.70723158 -0.26173273 46
-1.9603304 2.0335929 -0.26518241 1
-1.9108528 2.0451348 -0.18378125 54
-5.2777104 0.2017042 -0.22668786 36
-4.8138709 0.52274024 -0.23789559 20.4
-2.8495829 1.7840986 -0.22690691 1
-2.8232334 1.7820816 -0.27097446 7
-7.4346375 -0.83008647 -0.32551822 4
-7.3594861 -0.82759655 -0.25370327 8.5
-6.0930367 -0.020139575 -0.30143681 9
-5.4853783 0.36748987 -0.30613437 0
-5.2368579 0.39785379 -0.19188464 7
-2.8431556 1.8772686 -0.21368195 17.333334
-3.6857247 1.599776 -0.23313417 13
-3.5277777 1.7120929 -0.23996408 8.3999996
-6.7934766 -0.082978129 -0.29490125 52
-3.5397918 1.7258849 -0.16227713 6
-4.305171 1.5898654 -0.22268809 1
-7.996469 -0.42609036 -0.25119108 17
-5.4898138 1.0738866 -0.20411532 47
-4.6970534 1.4714561 -0.20820315 0
-4.8330989 1.538671 -0.23650934 0
-6.1397529 3.4477508 -0.27227855 0
-7.0073729 6.3888001 -0.23718198 2
5.6430678 -1.6241195 0.03629921 24.5
4.2623572 -2.0503736 -0.0048854575 6
5.2221413 -1.5102801 -0.0069717653 10
5.5394182 -1.309546 -0.03815503 103
4.1435266 -2.0762897 -0.075658605 1
5.2133231 -1.3507557 -0.0060157888 53
3.8070183 -1.9766922 0.020023793 17
4.8909302 -1.4054699 -0.043970067 4.5
5.0060387 -1.3408902 -0.058841523 1
2.7623427 -2.430865 -0.09300597 29
2.9232705 -2.3880067 -0.020918522 26
3.0434995 -2.3343253 0.016991958 26
3.7040439 -1.9422495 -0.032396805 37.25
3.4761252 -1.9482145 0.040234622 21
2.4885082 -2.2365851 -0.036820177 28.666666
2.792244 -2.1018629 -0.032309223 19
2.9113832 -2.0704892 -0.033323582 40.599998
1.23757 -2.848289 -0.010129336 110
1.2498345 -2.8232715 -0.0095045604 104.5
2.400285 -2.2434614 -0.093954608 33
0.94370091 -2.9185967 0.017311662 104
1.0129631 -2.6066658 -0.054404933 33
1.1315671 -2.6198335 -0.061743323 56
4.1674175 -0.77359617 -0.0068787299 23.5
4.9336591 -0.32599118 -0.039579522 31
5.2425394 -0.17553598 -0.058230173 47
0.64675748 -2.7439291 -0.054235574 45
0.73215753 -2.6150746 -0.035657514 50
0.81722271 -2.6213663 -0.015149336 41
3.820287 -0.58918202 -0.061756115 4
4.986928 -0.024288684 -0.00043309852 65
0.1946252 -2.5773222 -0.10535868 35.333332
0.63584507 -2.3045561 0.0076167621 25.333334
1.0429491 -2.12205 -0.035781328 2
3.7898948 -0.57534468 -0.031660866 3
3.8230722 -0.56620526 0.016980454 12.5
0.0050111413 -2.501596 -0.0083741695 35.5
0.10025248 -2.5229816 -0.080972582 25.4
0.58759212 -2.2249644 -0.060324941 35.5
0.97953975 -1.9881155 -0.055802997 6.6666665
-0.10545096 -2.4611495 -0.073833734 20.285715
0.90913439 -1.7943864 -0.081036821 13.5
-0.24270979 -2.3880103 -0.028820008 20
-0.20778331 -2.3888764 -0.040804576 14
0.41452795 -1.9615037 -0.074887604 27.333334
3.8341539 -0.046732962 -0.051490393 21.5
3.8819036 -0.0038617849 0.0037174709 16.200001
-0.39339635 -2.2475286 -0.05567063 33.75
0.30743527 -1.8634996 -0.029651392 7.8000002
0.32833278 -1.8495159 -0.054869849 38.875
3.8370912 0.18118423 -0.032186087 36
-2.2818487 -3.1345341 -0.13697797 1
-0.43571469 -2.1938448 -0.052126508 25.666666
0.28223938 -1.7755892 0.019397568 55
3.9843509 0.46699959 0.0064883158 24.799999
4.2507339 0.56044406 -0.063960448 49
4.4933133 0.79957801 0.014256075 23.5
4.8306212 0.87824935 0.052485928 106
-3.2053506 -3.5876794 -0.09561561 1
-2.7803757 -3.4188645 -0.057991635 24
-2.5527663 -3.2637517 -0.084506392 14.666667
-0.52692163 -2.0233624 0.0021163747 47
3.710587 0.40946043 -0.069649562 1
4.3898563 0.90505368 0.0024192408 19
4.4904656 0.96714395 0.05090525 1
-2.4251747 -2.8969717 -0.13579458 2
-0.58024395 -1.8302124 -0.053642709 68.777779
4.3781409 0.9463883 -0.06994164 3
-0.61978924 -1.7284181 -0.062968478 61.25
-0.61602223 -1.6566205 -0.058845121 93.375
3.7874787 0.85334808 0.0166547 15.5
3.813833 0.86582583 -0.056309547 17
-0.64700043 -1.6620998 -0.051230628 29
-0.61214018 -1.639498 -0.033079613 41
-0.90336943 -1.48792 -0.014484677 1
-0.75507939 -1.3343881 -0.018128831 13
3.4367855 1.1704504 -0.012807403 2.2
3.4464109 1.2329655 -0.072543934 8
3.6065805 1.2487481 0.046493605 3
3.9976833 1.6204479 -0.022665974 8
4.32442 1.7824287 0.049628973 1
4.436676 1.8439882 0.023628119 0
3.6527069 1.6690602 -0.041834015 13
3.6729283 1.6826708 -0.020109739 8
3.6430862 1.7052867 0.024045896 16
3.3896155 1.7250586 -0.038958143 1
-2.4225509 -1.3629711 -0.070230231 20.5
-2.4429219 -1.3322415 -0.082461134 11.833333
2.4205945 1.645082 -0.050399531 5.5
3.44275 2.1299376 -0.012074012 2.1666667
2.2769289 1.737669 -0.058549058 6
2.3568621 1.6953895 -0.016461954 5.8000002
3.5423026 2.4255075 0.020117838 4.5
2.2858334 1.7609725 -0.075678691 9
3.6568124 2.6190743 -0.044373941 0
2.0915475 1.9238417 -0.053273264 6.25
3.4574795 2.7949417 0.030272249 13.5
-4.1289325 -1.4226456 -0.10792346 29.333334
-0.0031453073 0.98313481 -0.045618962 56.200001
0.0062482655 1.0056314 -0.0033659078 46.5
0.0059973001 1.1986108 -0.045682941 65.5
0.056210637 1.2603827 -0.041555818 68.333336
0.075887948 1.3736959 0.014164908 37.666668
0.10947004 1.4147339 -0.051861394 54
0.14466545 1.5815532 -0.018848717 33
0.16141558 1.6025045 -0.070789322 23
2.8710163 3.2283132 -0.01235662 26
-0.33148542 1.568404 -0.10520567 6
-0.31580904 1.5595164 -0.054749634 46.875
2.6445894 3.2116115 -0.024487201 20.833334
-0.31884488 1.5824428 0.0033256114 77.5
0.024683595 1.8696127 -0.0078847595 54
0.40880114 2.1338923 -0.072421804 1.75
0.23659532 2.1714311 -0.068729594 12
1.3821794 2.8816636 -0.050608907 8
1.5414017 2.9548488 0.02869354 25
-6.8357706 -1.8013687 -0.13160758 34
-6.0220695 -1.2930779 -0.15009145 0
-5.4664226 -0.95988941 -0.16808173 23
-0.52978563 1.9157844 -0.096083954 1.5
0.40751314 2.4581501 0.020134803 2
1.3424892 2.9143124 -0.051482927 4.5
1.4237314 2.941329 0.0077618528 8
-6.8708167 -1.6778374 -0.15349798 28.5
0.26844931 2.5024538 -0.081179172 12
0.35422921 2.611805 -0.049957383 44
0.77082801 2.7602081 -0.041089881 2.375
-1.8939403 1.4149508 -0.074396744 4
-1.7720648 1.4631681 -0.068562001 54.857143
0.17071351 2.5646155 0.017200839 43.5
-5.2623978 0.17893171 -0.15907663 48
-1.9205762 2.0408878 -0.06636861 45
-9.1368256 -2.0565922 -0.1256796 17
-7.3600125 -0.85450006 -0.094295502 31
-5.6370173 0.063544065 -0.15383108 53
-5.2895093 0.20053494 -0.12644957 51
-4.8262415 0.50835627 -0.09823221 18.25
-7.3979225 -0.85687071 -0.18651225 7
-7.3489871 -0.82502586 -0.13962482 34
-5.2477059 0.39997548 -0.09191978 2
-5.233355 0.39713883 -0.10824151 10
-3.6794024 1.6027157 -0.086667076 15.4
-3.5221334 1.715111 -0.083117098 6.5999999
-5.0357165 1.1690626 -0.054576736 11
-5.0179591 1.1829715 -0.12042265 36
-4.3162341 1.6025784 -0.13323621 0
-5.4179888 1.1100781 -0.11347841 15.5
-4.8386703 1.320961 -0.083745033 5.3333335
-4.7836604 1.5004799 -0.11523828 0
-8.1034117 -0.39442521 -0.15520556 0
-4.7899485 1.5536647 -0.11574332 0
-4.5368443 1.7116969 -0.078262985 0
-4.4006939 1.7344542 -0.10616563 1
-8.5757055 -0.46024179 -0.11301766 0
-8.264184 -0.27373654 -0.10769248 31
-8.1589489 -0.06401065 -0.1558959 0
-3.962759 2.3696361 -0.12902728 0
-5.6189995 1.7934992 -0.063778281 1
-6.1337857 3.4888058 -0.072968945 0
-7.7111878 2.7896912 -0.096856073 0
-6.9989905 6.5975008 -0.091299877 2
5.5664043 -1.5968573 0.14345801 42
5.627152 -1.55319 0.082827009 22
5.6196513 -1.5126243 0.11362584 39
4.2725706 -2.0401797 0.18984331 4
5.0905871 -1.443975 0.21635659 7
5.2237201 -1.4227004 0.19283043 6
5.3562717 -1.275707 0.19676907 7
2.7907116 -2.4174941 0.10218281 28.75
3.7708986 -1.9322944 0.11659178 25.833334
2.6813164 -2.2896066 0.10307227 19
3.267082 -1.9526742 0.1146083 37
3.4120297 -1.9153814 0.19615833 41
5.2656569 -0.76295853 0.19301413 10
5.2701826 -0.74477994 0.22139128 10
2.5270145 -2.1951129 0.16333203 24
5.3258281 -0.56219554 0.22355898 17
1.2406853 -2.8218961 0.078091636 108.2
5.3183365 -0.45969647 0.19491939 72
0.6368891 -2.9888375 0.13724042 90
0.43571177 -2.9925916 0.088818654 23.5
0.47563809 -2.9351137 0.065348968 5
0.75113523 -2.8553877 0.060110468 20
0.87342632 -2.6834936 0.046040751 25
1.0214853 -2.6136074 0.081578746 57.5
1.1816236 -2.5565946 0.1509703 49
4.1581898 -0.73137158 0.06923458 11
5.2240367 -0.15817752 0.19234036 45
0.39090422 -2.8884969 0.071339071 4
0.52984244 -2.7752666 0.099308386 75
0.77944303 -2.6742139 0.058667049 31
0.85626066 -2.6383684 0.086087525 41.5
4.1032367 -0.67357981 0.09009251 10
4.8824716 -0.27925971 0.20648415 13
5.0025787 -0.17533393 0.18460421 13
0.41292536 -2.6370819 0.054284275 28
0.47732729 -2.6147776 0.061274968 23
0.71925873 -2.4085763 0.15230167 19
3.8611915 -0.56257033 0.076441571 13.5
5.0343337 -0.021041423 0.10614829 45
0.67528939 -2.3510613 0.092673793 18.714285
-0.0063185096 -2.5105762 0.15237677 27
0.058904409 -2.5222447 0.069225989 24.5
0.58284664 -2.2276173 0.063246489 33.400002
-0.19710109 -2.4267235 0.072444886 33
-0.10596088 -2.4655085 0.082186848 16.333334
0.52152479 -2.1320803 0.029593047 27
0.41299185 -1.9809749 0.033489194 32.5
3.9426582 0.024583042 0.068348348 16
3.9771764 0.095371783 0.13102646 19.200001
-2.571207 -3.4717393 0.071883664 8
-0.38685343 -2.2718289 0.059789866 44.5
0.35490704 -1.8659453 0.0653271 43
4.0231423 0.37748802 0.17591505 13
-2.7673502 -3.4404795 0.046082351 23.799999
-2.5778935 -3.4567945 0.071765259 29
0.23806466 -1.7386918 0.063944891 5.3333335
0.28342184 -1.7558749 0.069220565 68.333336
3.9986548 0.4392941 0.11174674 11.8
4.6763701 0.82008845 0.077240705 28
-0.48696199 -2.0758924 0.042286329 38
0.1976096 -1.6776054 0.13773404 7
4.5088401 0.97471958 0.075796761 1
-0.57674479 -1.8167617 0.10755393 70.5
-0.63621378 -1.7056191 0.089453533 55
-0.61539853 -1.6683433 0.074862659 53.833332
3.7661357 0.87506372 0.09873274 9.5
-0.59422958 -1.6252186 0.019171275 28
3.7843938 0.98928636 0.16257232 22.5
-2.6453602 -2.6464441 0.034414642 1
-0.94452262 -1.5202048 0.058275957 1.3333334
-0.88449538 -1.4718165 0.033650607 1
3.6803677 1.141093 0.16074902 15.5
3.6791797 1.2672698 0.099429116 3.25
4.3273764 1.7683241 0.075324662 2
3.6179807 1.7349241 0.079041764 21
3.6344869 1.7884889 0.14634955 12.25
4.3074093 2.1113825 0.19554535 2
-2.4337058 -1.3723521 0.058731992 27.75
3.5626969 2.1188822 0.16048372 10
-2.4415321 -1.3534255 0.054126732 15.666667
3.427309 2.0798714 0.06666141 1
3.5588264 2.1521642 0.091311917 7
3.7817984 2.3952067 0.16297147 1
3.5285969 2.4361522 0.092544928 5
3.5466034 2.4783919 0.1417411 6
4.1197267 2.7090564 0.15819849 1
3.5814614 2.5215175 0.18023694 12.5
3.4761674 2.8198888 0.11953871 14.666667
3.5343266 2.9347713 0.14786887 10
-4.185761 -1.406394 0.038076814 30
0.00048395991 1.0013285 0.03798151 97
0.011295408 0.99558324 0.06901893 35.25
-0.0046823919 1.1770062 0.11600694 69.666664
0.028177083 1.2657032 0.059550524 72.5
0.060410768 1.3670888 0.081017449 42.799999
0.11564282 1.573164 0.080693707 23.333334
2.8751416 3.2350864 0.10070473 30
-0.32493928 1.5672405 0.051414914 10
0.03485626 1.6957736 0.091918796 19
2.6352844 3.2055869 0.096873313 25
-0.34906122 1.586906 0.08803466 17
-0.34052595 1.5887864 0.077993065 43
0.01712814 1.8643947 0.044492736 49
0.13096076 2.1195982 0.069207266 37
0.26387551 2.1429391 0.063471019 12.5
1.3974127 2.8986628 0.086675003 2
1.5440363 2.9291117 0.18957084 31
0.19763884 2.2778771 0.072573349 42
1.3512179 2.9254184 0.098206833 6.4000001
-5.5630612 -0.9700315 -0.01307695 13
0.75564539 2.7468302 0.097316816 3.4285715
-1.8847796 1.394165 0.019638408 1.5
-1.7772027 1.4695497 0.070901498 36.5
0.1102533 2.5546231 0.03355993 62
-1.84366 2.0266933 0.031833395 61
-9.1628208 -2.0993357 -0.012611873 12
-5.2869883 0.16076767 0.052363578 42.666668
-5.2684207 0.16945064 0.024522249 62.5
-4.819984 0.43563193 0.010401577 33
-4.3172717 0.70441455 0.041917678 106
-1.9881879 2.0388215 0.1302541 0.5
-1.9268891 2.0397458 0.057761841 47
-9.1533165 -2.0595291 -0.069242299 15
-7.3790708 -0.88329017 -0.0034281835 29
-5.6393909 0.052765399 0.059137281 28.75
-5.340178 0.32839632 0.092624068 36.5
-4.8211226 0.49324012 0.010582937 25.5
-2.048358 2.1165924 0.051555146 5
-7.376575 -0.85562724 -0.048968773 31
-2.8601713 1.9206362 0.0020704083 23
-9.9744549 -2.0543826 0.045350458 32
-3.6569872 1.6017959 0.059583616 34.166668
-3.5146563 1.6722908 0.059517868 62.666668
-5.597538 0.56189078 0.096180767 25
-5.4461532 0.76087338 0.11318266 59
-4.9762917 1.130976 0.011735849 33
-4.8349037 1.3191235 0.045307606 31
-8.6603832 -0.46140426 -0.061413039 0
-4.0021892 2.3713002 0.021491492 0
-8.5633745 -0.1456822 0.045091536 2
-8.4422445 -0.11865467 -0.058583993 2
-5.6458917 1.8027773 -0.026629675 2
-9.324873 -0.23449501 -0.010993913 2
-6.3380461 1.9677258 0.091753498 11
-7.2810259 6.610229 0.086102948 3
