# .PCD v0.7 - Point Cloud Data file format
VERSION 0.7
FIELDS x y z intensity
SIZE 4 4 4 4
TYPE F F F F
COUNT 1 1 1 1
WIDTH 1305
HEIGHT 1
VIEWPOINT 0 0 0 1 0 0 0
POINTS 1305
DATA ascii
-5.3925066 0.39625391 0.32238343 25
0.77031481 -2.4593256 0.27547449 71.333336
-0.99613094 -1.4218351 0.30663478 0
-0.5789597 -1.6688826 0.28308931 31
1.2570436 -2.5677686 0.22608873 45
-5.5196466 1.0744039 0.23954237 47
-4.3519068 0.63286614 0.28644705 4
0.19306445 -1.585885 0.28004774 38.5
0.24365211 -1.6809489 0.28068727 52.5
-6.3600435 1.9246185 0.37379947 2
-4.3092947 0.93692958 0.40756941 113
2.668745 -2.4663062 0.42161828 56
2.6036806 -2.1969101 0.2591165 48
2.7542009 -2.4451263 0.29144028 37.5
-4.4120131 1.5778024 0.21764889 14
2.9951301 -2.0870731 0.3135449 5
-3.6390879 1.5946292 0.32867864 25.5
3.8384929 -1.9098952 0.4234311 73
4.0041184 -2.1069715 0.32701719 55
3.9847808 -1.7596499 0.29608715 2
4.3944397 -1.6720296 0.33073422 4
4.8243456 -1.8126537 0.26840997 9
4.9853554 -1.7682271 0.27866679 7
-0.0039961338 1.2550164 0.26289195 32
0.029198885 1.1897861 0.37325811 18
5.1819434 -1.3761591 0.28176552 14.5
0.027230024 1.4347188 0.26988566 30
5.1580906 -0.98264802 0.27161315 11
-0.17583489 1.7534692 0.29924616 41
5.0649314 -0.59720206 0.25968599 16
-0.24765205 2.1294389 0.32479718 18
-0.023387671 2.1857951 0.23448968 1
4.1732912 0.25845155 0.32464373 8
4.2944365 0.22599247 0.34070086 19.5
3.8360927 1.1269983 0.35226655 1
3.9774442 1.0357093 0.35772273 2
4.9851131 1.0061899 0.3429125 1
3.8306327 1.9312644 0.31706467 6
3.7944603 2.3268995 0.29042697 7
2.7194853 3.1993589 0.25150216 45
3.6009059 2.6747942 0.31017289 1
3.7642331 2.6305451 0.3126159 1
4.4325571 2.2729237 0.31753013 1
2.8977737 3.2434993 0.25611013 53
-9.9728937 -2.090549 0.48495924 8
-9.1211596 -1.1144474 0.4533554 2
-9.357295 -0.27334604 0.46407172 2
-5.6495705 0.04994747 0.47064918 34
-5.2617989 0.1927034 0.45066321 9
0.82112575 -2.5426824 0.51719445 54
1.0727345 -2.6017635 0.50219953 11
-0.58682179 -1.6097244 0.41617927 33
-0.84289932 -1.3462024 0.43418646 1
0.17055869 -1.5994833 0.4895184 87
2.7676692 -2.4915867 0.52341682 9
3.0029743 -2.136219 0.543028 1
3.4635406 -2.0523558 0.57626331 46
3.873076 -1.9042236 0.61264342 18
0.045548439 1.1917332 0.53832501 9
-0.16941738 1.7903883 0.43762863 46
0.41814101 2.1225498 0.60579175 1
4.9790783 1.0024155 0.57328546 1
4.4316759 2.2553713 0.45064181 1
-10.846268 -1.7963637 0.74964303 1
-9.9512243 -2.0881255 0.70260686 16
-9.1503658 -1.0807319 0.65711248 2
-9.3358088 -0.235241 0.66888505 1
-5.6462641 0.023702323 0.65887809 15
-0.5636301 -1.8153496 0.62210196 9
0.73052931 -2.4286106 0.74187964 50
-0.593817 -1.6896954 0.61745626 32
0.18818974 -1.6159565 0.70868963 59
-3.6893289 1.5858376 0.79850554 1
-3.5055063 1.6644005 0.78102154 42
-0.70447493 2.1712074 0.75427419 0
3.8189068 3.222863 0.7442323 23
-9.1938181 -1.1212275 0.93150282 2
-9.4336309 -0.27499405 0.95100605 2
-5.3020849 0.13926461 0.95077807 35
-5.5243893 1.1017958 0.99449378 42
-4.8875561 1.5176587 0.93283445 9
5.2119327 -1.5160366 0.85711992 10
5.4877186 -1.47895 0.92307901 6
0.15645504 1.9495671 0.88563991 8
0.32653379 2.1072614 0.886926 1
0.47117639 2.3020875 0.90481544 18
4.5246181 1.8047619 0.84990507 9
4.7247372 1.7028837 0.87103021 1
2.7146511 3.1752684 0.98344529 39
2.8787563 3.2152677 0.99978864 42
4.2457914 2.8104718 1.021361 23
-10.89253 -1.8449446 1.0654268 1
-9.9697227 -2.1336563 0.99644756 19
-3.5132167 1.6444179 1.1520616 19
-4.7216406 1.4253185 1.3472503 7
-9.9575682 -3.2052743 1.530092 23
-9.973525 -2.0939467 1.5108582 22
-9.9793539 -1.1826768 1.5030909 20
-10.027483 -0.062807798 1.5095966 15
-6.1076422 0.93146551 1.570812 40
-10.439224 -3.8410676 1.6022648 13
-6.2226181 1.3805212 1.6064967 44
-3.7433345 1.3639494 1.7207643 46
-3.5944273 1.5955144 1.7015401 18
-3.8397372 1.9884439 1.7983288 0
-7.7245922 -1.5531888 1.8468511 4
-7.7898197 -1.2391044 1.8535233 9
-4.3710976 -2.6640127 1.9172071 3
-4.5387831 -2.1405602 1.9205937 4
-8.1303835 -0.17562132 1.9107264 11
-4.7322655 -1.0641016 1.9228754 5
-4.797183 -0.47002864 1.9321216 5
-4.8986654 0.67665446 1.9805944 15
-4.2423058 0.84747815 1.8172096 50
-8.5624323 -0.77730942 1.9870526 3
-9.9709997 -4.702023 2.3588991 38
-10.025734 -3.4001937 2.3047991 32
-7.3888798 -0.19871786 -1.020363 0
-3.6752317 2.5804281 -0.94194436 0
-6.9916306 -1.6768575 -0.88763535 48
-5.1334734 -1.1804259 -0.9550752 43
-5.2113848 -0.85268247 -0.80402917 14
-3.9280822 -1.3289875 -0.99117708 1
-5.1249161 0.51571071 -0.76336515 8
-2.3115942 -1.6849698 -0.98604786 1
-5.0797701 0.69620508 -0.75639081 18
-2.0129626 -1.4461633 -0.90958542 9
-4.3897467 0.60961765 -0.81761426 1
-4.9492159 1.1757963 -0.73911995 21
-0.0013000965 -2.5195327 -0.94408727 8
0.27707982 -2.7738552 -0.94812977 18
-4.9873915 1.4325472 -0.89101577 0
-0.02685523 -2.266252 -0.89638275 29
-4.9327574 1.6069828 -0.88524449 8
-4.0645361 1.5774494 -0.7783404 0
-3.6162241 1.6986026 -0.72536188 36
-3.3572986 1.7959861 -0.86881036 1
1.1869948 -1.758568 -0.90035021 1
1.6706619 -2.0299034 -0.89935261 1
-1.8233416 1.449036 -0.83769763 1
-1.8451478 1.5795149 -0.84863997 1
1.4075546 2.6046057 -0.74896872 43
5.2637024 -0.054505304 -0.76523918 11
1.9449661 2.713645 -0.7398299 105
-7.2062073 -1.3839581 -0.61432636 28
-7.447299 -0.72451097 -0.61027193 2
-7.2454071 -0.20284075 -0.75329852 6
-6.1409454 0.089333266 -0.75675523 14
-4.0287981 -1.58781 -0.61162865 1
-5.2824545 0.27603006 -0.62801158 43.5
-2.0283792 -1.8632152 -0.73817283 12
-2.0858486 -1.4360456 -0.71659356 21
-4.3156023 0.8096993 -0.67390794 34
-0.50322628 -1.9433906 -0.67833596 34
0.50695324 -2.6070971 -0.62507641 36
-0.55403352 -1.6885086 -0.65715086 15
1.0969241 -2.7315001 -0.8068645 50
-4.0357513 1.516264 -0.54750538 0
-3.8390067 1.5777544 -0.62345672 0
-3.6147735 1.6951025 -0.60130811 41
1.2112733 -2.1292415 -0.62930053 10
-6.0520229 3.9136319 -0.54346138 7.6666665
-3.5008895 1.7954396 -0.59071726 9
-3.7871482 2.574307 -0.53396624 4
1.4787204 -1.5288919 -0.72480077 2
2.7011468 -2.4661222 -0.63965446 7
3.1073346 -2.3790798 -0.63968301 65
-0.070286036 0.99216723 -0.71389502 30
-0.19011664 1.3992223 -0.54384208 7
0.2111969 1.1965503 -0.67007548 3
0.3817687 1.6663412 -0.70391601 62
3.9106989 -0.91234607 -0.74692994 6
0.77085185 1.8588108 -0.66685718 9
4.9846396 -0.7113471 -0.71115422 21
3.6441607 0.72767961 -0.68663812 2
4.9662886 -0.3564688 -0.68739754 21
5.0733948 0.033300817 -0.71240473 0
5.2296848 -0.12669818 -0.75621426 6
4.2032356 0.89628983 -0.54035938 0
4.4328241 0.89030838 -0.59443331 2.5
2.6333575 2.5684848 -0.69590181 0
3.596683 1.8815659 -0.60478181 2
3.9540753 2.0303378 -0.68851638 2
3.6902719 3.4233313 -0.65998846 25
-7.1101599 -1.7366644 -0.56276715 34
-7.5352249 -1.0956607 -0.56724858 4
-7.3208046 -1.011865 -0.49541476 19
-6.5135412 -1.6536143 -0.57918161 32
-7.3862429 -0.72919774 -0.52011734 10.5
-7.1560926 -0.17711246 -0.46593606 6
-5.3317719 -1.5182906 -0.54464984 5
-5.3202744 -1.2990628 -0.39980903 1
-3.4975283 -2.7029786 -0.54704219 7
-5.1393852 -1.164094 -0.51924902 61
-3.3973205 -2.6135201 -0.60791153 13
-5.2168856 -0.86012936 -0.51595432 25
-4.0807219 -1.6468779 -0.5411967 16
-6.0983553 0.077794582 -0.47905543 9
-5.2792826 0.25548851 -0.40286818 35.666668
-5.3133707 0.47189075 -0.4459413 21
-2.250973 -1.6241753 -0.52162498 8
-2.0499694 -1.721308 -0.4391928 13
-1.9062521 -1.7903951 -0.54068953 13
-4.9272776 0.56540763 -0.46275723 8
-2.1593263 -1.3940753 -0.43262169 10
-2.0173762 -1.3251634 -0.48173854 11
-4.9659615 1.1991242 -0.43497932 20.5
-4.3984013 0.77144265 -0.50355935 1
-0.38213992 -2.2253058 -0.4471648 0
-0.51684499 -1.856145 -0.42803118 35
0.40265989 -2.6870351 -0.51309901 12
-4.6807013 1.5555334 -0.39160636 0
-0.54761934 -1.6515248 -0.46090522 18
0.69695091 -2.6507492 -0.47960988 43
-4.6159678 1.6183481 -0.42953354 0
1.1115941 -2.6115675 -0.55769271 49
1.099223 -2.778491 -0.46672785 50
-4.0865173 1.5505823 -0.47315583 0
0.45368719 -1.8857441 -0.51174814 87
-3.5343263 1.7117342 -0.42999819 38.333332
0.97336984 -1.8038667 -0.59008718 14
0.98713136 -1.8140436 -0.4221051 14
1.2228655 -2.1282864 -0.45095387 18
-6.0479984 3.937923 -0.4145962 7
2.7917058 -2.1831496 -0.55832595 15
2.9883263 -2.3915215 -0.45735043 59
2.8697014 -2.1063721 -0.54027283 41
-0.044082403 0.9985317 -0.42676586 37
3.664237 -1.9106184 -0.58510369 3
-0.13735914 1.2585347 -0.45701084 24
0.12150526 1.2503542 -0.41702658 16.5
3.8362365 -1.5575712 -0.53658068 3
4.5344763 -1.8140377 -0.53034508 0
0.094959974 1.8589951 -0.40467614 63
0.29664707 1.6741546 -0.49397048 63
3.6895556 -0.99361008 -0.39662769 11
4.5690184 -1.599468 -0.50706261 0
0.3642931 2.0960956 -0.39642867 15
0.89316916 1.7511066 -0.42381614 49
4.034914 -0.63892597 -0.44405976 2
1.0977911 2.0863409 -0.33022645 16
4.7444401 -0.63542342 -0.44980288 15
4.5398626 -0.26564333 -0.4801217 15
0.94043779 2.7888131 -0.32534668 10
1.3482209 2.2937961 -0.33746466 10
1.5188212 2.1666379 -0.42779645 39
3.6727204 0.78853381 -0.40601009 2
4.1052494 0.54835224 -0.47711936 1
4.9791999 0.0048817098 -0.36372167 1
3.5992579 1.1805995 -0.46008646 5
5.2082591 0.0045349598 -0.52442735 9
2.7818441 2.0997005 -0.39135376 30
3.6694379 1.381777 -0.51126677 0
4.4841266 0.85889721 -0.41414145 9
3.3605316 1.912182 -0.39238855 0
3.4533696 2.1011643 -0.31445518 1
4.5699978 1.0998099 -0.44749907 0
3.4673228 2.6743693 -0.29526392 5
3.5306058 2.7203803 -0.39284417 0
3.233443 3.3714671 -0.46061945 15
-6.7960424 -1.8586104 -0.27672485 15
-8.2663031 -0.17517057 -0.21313328 20
-7.3251152 -1.0681827 -0.29825297 10.5
-8.2526407 -0.1700844 -0.27486825 11
-7.3769827 -0.69279754 -0.37629613 11
-6.9993162 -0.40105936 -0.29786226 7
-5.1530056 -1.1735439 -0.25422177 11
-4.0511351 -1.6688225 -0.38527477 9
-4.0506916 -1.5882338 -0.24776968 13.5
-2.6778615 -2.1770835 -0.28167382 64.5
-5.3550653 0.2302469 -0.24926141 25
-2.3105991 -1.4674613 -0.39274693 11
-2.3060882 -1.5326484 -0.30978543 28.333334
-2.140053 -1.7906076 -0.25472537 16
-5.4295959 1.1467502 -0.25696373 18
-2.1978052 -1.5224782 -0.22847369 14
-5.5827227 1.8761362 -0.15554729 1
-4.8022108 1.4246894 -0.14129022 5
-0.50682545 -1.8480127 -0.27510747 20
-0.35562873 -2.1995976 -0.22926876 31
0.54289627 -2.6557326 -0.23590729 36
-4.8260422 1.6182956 -0.20379665 0
-0.53978157 -1.6814339 -0.24828669 22.4
-4.5074358 1.6392047 -0.25467971 0
1.0058252 -2.6510177 -0.28166065 36
1.1039375 -2.7775235 -0.31657824 49.75
-4.2827959 1.6771402 -0.28476271 1
0.40825367 -1.8726518 -0.24408853 35
0.42897356 -1.8833996 -0.30630967 100.75
-3.5659988 1.6929721 -0.22622186 44.200001
0.98402226 -1.8013026 -0.22801778 15
0.9858284 -1.8136375 -0.29947421 54.5
1.225252 -2.132673 -0.27766696 53.5
-6.0643167 3.9407086 -0.19489643 4
-3.4963477 1.7500218 -0.1903047 40
-6.0839367 3.9774575 -0.084539168 4
2.6769598 -2.4787312 -0.22723046 69
-2.0856879 1.5586123 -0.20505908 1
2.7861304 -2.2200298 -0.22706524 55.5
2.9908237 -2.4113178 -0.31732744 83
3.1128452 -2.3555288 -0.3062588 77
-1.8844392 1.4949528 -0.30291507 13
-1.7447813 1.5178438 -0.14728752 56
2.9746873 -2.0920634 -0.26836929 69.25
-0.018726349 1.0052263 -0.21735236 29.75
3.858952 -2.0907111 -0.30690789 1
-0.13485861 1.3698033 -0.31248319 24
0.015061855 1.2572249 -0.16186243 35
4.1841545 -2.0894313 -0.21836942 14
0.097162008 1.2728441 -0.15659699 19
3.8681493 -1.5675547 -0.2820147 1
3.9989991 -1.6950198 -0.28109553 1
4.5111947 -1.7372727 -0.27868631 1
4.8274755 -1.930365 -0.28113657 1
0.13095117 1.8925086 -0.19931832 96.833336
3.6887114 -0.80500472 -0.19589105 8
3.8200967 -1.0081488 -0.18754134 6
4.0375233 -1.0719111 -0.34981641 5
4.5559502 -1.5509506 -0.29496068 0.60000002
3.709909 -0.75575012 -0.2261101 7
4.1007028 -0.96792257 -0.35041785 15
4.1360722 -1.0348883 -0.21960706 1.6666666
-0.20577908 2.6739211 -0.12502247 1
0.39238167 2.1007361 -0.25066024 20.333334
0.49638486 2.1379671 -0.19609255 7
4.0205474 -0.66219735 -0.25178102 36
4.131145 -0.76755381 -0.27996939 13
4.2833157 -0.67226112 -0.22127545 3
3.6653526 0.16355324 -0.2483829 5.5
3.6935778 0.063671947 -0.22638816 82
4.7585864 -0.6396631 -0.34684667 27
5.418416 -1.3350556 -0.19762382 6
2.0819111 1.6724521 -0.22303435 6.5
2.1470706 1.6514349 -0.22395271 2
3.6684637 0.27392823 -0.34090167 23
3.9141772 0.16310012 -0.20179826 4
4.5474262 -0.2486842 -0.24590436 5.6666665
5.2803249 -0.77325869 -0.25179031 1
2.1314056 1.7757312 -0.18180221 5.5
2.4034617 1.6317583 -0.12740356 14
3.6432786 0.77163625 -0.14918321 100
3.8591418 0.44719809 -0.21037352 4.3333335
3.9849482 0.44163734 -0.17137411 4
5.0150518 -0.30438539 -0.24929884 15
5.068428 -0.43378624 -0.31093487 9
2.3820407 1.9012395 -0.19237834 16
3.8827457 0.8178159 -0.22765508 1
3.581902 1.2697712 -0.15887225 1
3.5389972 1.1941535 -0.26276055 1
3.9021266 0.90572119 -0.17645341 21.5
4.0638003 0.82508361 -0.33964059 0
5.1779203 0.0055333674 -0.28815883 1.5
2.8675461 2.0627379 -0.28218549 7
4.2543931 0.92024517 -0.21204737 5.5
5.3109307 0.0072402656 -0.23312375 2
2.8992331 2.1739168 -0.22664315 17
3.3875296 1.9074651 -0.17710206 1.6666666
4.5543928 1.0740457 -0.20839754 11
2.9031801 2.6035981 -0.21267724 19
3.5375872 1.9803857 -0.11910676 2
3.4266179 2.5429854 -0.15326735 5.5
3.5650237 2.4272695 -0.10769371 17
2.7730498 3.2344222 -0.14166942 38.400002
2.9190209 3.2458582 -0.14347228 50
3.4607236 2.6870627 -0.23463055 11
-9.9138594 -2.3524756 -0.089471504 17
-9.0839005 -1.3585869 -0.059648871 2
-5.8440628 -3.5273342 -0.12355762 18
-9.3357592 -0.11976208 -0.10016534 1
-5.6908932 -1.2111881 -0.17880598 8
-4.1110268 -1.6145825 -0.11523048 14
-4.0966425 -1.5806677 -0.13975188 35.666668
-2.7429702 -2.2758842 -0.20850357 10
-5.6540222 0.17504713 -0.026607931 50
-5.2980556 0.24644774 -0.089242749 70
-5.2525511 0.48789704 -0.12766638 9
-5.4365149 0.75285792 0.011906132 42
-2.3777425 -1.4676553 -0.11034826 21.571428
-5.5444393 1.1924984 0.02160522 40
-4.8215122 0.569215 -0.094792642 26
-6.3502378 2.1104794 0.038218521 2
-6.3966513 2.2253256 -0.039515451 0
-4.9747429 1.2043658 -0.084387258 23
-4.3329029 0.79848456 -0.099786349 29
-4.3130388 0.78265691 -0.099705227 40
0.46915603 -2.8635998 -0.086464889 6
-4.8317156 1.4298825 -0.012186024 14
-0.49589205 -1.9186949 -0.094222821 17.25
-0.39078164 -2.1673446 -0.14063001 9
0.41690612 -2.6739626 -0.17867154 28.25
-0.54118657 -1.6714427 -0.10503966 24.799999
0.56519628 -2.6563568 -0.05135902 31.5
0.64118612 -2.6521111 -0.10073905 34.400002
1.0934207 -2.8188295 -0.062314458 46
0.66808069 -2.348762 -0.041142769 20
1.0475912 -2.627069 -0.14532417 34.333332
1.1071481 -2.7836242 -0.14806193 48.333332
0.39355421 -1.8493724 -0.072417721 57.833332
0.4536624 -1.9333528 -0.11896067 73
1.1566888 -2.1625156 -0.058930561 1.5
-3.6915848 1.6705745 -0.012779243 28
-3.6507318 1.6703588 -0.086342461 54
0.98146224 -1.8036964 -0.19851598 41
0.99167466 -1.8717908 -0.10421941 19.6
1.2244047 -2.134371 -0.13397354 14.5
1.2411813 -2.1435833 -0.14667127 5.5
-3.5057261 1.747945 0.027616642 89
-6.0849428 3.9766154 -0.029341325 3
2.7009661 -2.465354 -0.14470589 68.666664
2.8295264 -2.4567752 -0.13141298 93.75
-2.0348437 1.5161715 -0.062897183 0
-1.9351194 1.4729742 -0.0061913654 7.3333335
2.7027843 -2.1939096 -0.047543734 68
2.8051288 -2.1727648 -0.079157479 72.375
2.9721594 -2.4030089 -0.11996976 94.545456
3.1186061 -2.3639483 -0.16528448 69
2.950099 -2.1121917 -0.091786705 71.599998
3.5148251 -2.0665162 -0.096219979 51.900002
0.010043859 1.0054876 -0.051476724 24.700001
3.7592828 -1.9941987 -0.083048739 32.666668
3.8988171 -2.1499748 -0.17983285 9
4.1313624 -2.1386456 -0.056720443 0
-0.11338162 1.3761609 -0.073276274 35
0.017858505 1.2368437 0.020321064 15
0.018641949 1.0355539 0.048991486 29
3.8782637 -1.8086807 -0.11628775 7.2857141
4.0817842 -1.9202855 -0.15754116 0.33333334
4.1372938 -2.1194291 -0.10016152 21
3.8974612 -1.5335327 -0.076034293 6.909091
4.0091643 -1.6562651 -0.11205422 0.5714286
4.2576923 -1.6478893 -0.097661175 0.5
4.4802723 -1.796852 -0.063933432 0
4.537384 -1.8034577 -0.10336413 1
-0.068302631 2.0967326 0.010778412 60
-0.04748702 2.0846405 -0.035343654 39
0.097349405 1.9107982 -0.028516289 90.599998
4.0746918 -1.1385281 -0.15244058 4
4.498251 -1.4469558 -0.19129932 0
4.579813 -1.5796264 -0.07219106 2
4.7526126 -1.7665634 -0.13282838 1
0.045679092 2.1119447 -0.026437595 22.799999
3.8805103 -0.80702943 -0.17960343 6
4.1625204 -1.0697141 -0.15480709 2.5
4.3535848 -1.0591626 -0.18216822 1
4.7606764 -1.5704893 -0.18649086 1
-0.048119307 2.5526156 -0.09477777 1
0.24007726 2.2066665 0.035883818 7.5
0.34324145 2.1481295 -0.016056679 8.5
3.8757761 -0.61829615 -0.024777204 19.6
3.9884038 -0.65168655 -0.093339942 34.5
4.1715422 -0.82590771 -0.077632353 36.5
3.7034144 -0.20877281 -0.041402102 37
3.7186971 -0.22190095 -0.034873985 19
4.2226858 -0.65115142 -0.16279984 1.5
5.4250302 -1.3630043 -0.14308286 29
3.6847417 0.16586104 -0.073306583 12
3.7657034 0.12750092 -0.038269266 32.142857
5.4819632 -1.3591561 -0.15785828 24.333334
3.7745852 0.37644649 -0.04725793 31.428572
3.8838997 0.13470006 -0.034562632 32.555557
4.2223511 -0.086850524 -0.058622763 20
4.5390272 -0.2914058 -0.14196199 14.666667
5.0167518 -0.60079122 -0.097686566 5
5.4025507 -0.86119479 -0.15929887 11
2.130065 1.799837 -0.08317598 10
2.3104503 1.6436831 -0.027360059 25
2.4246988 1.6346073 -0.048763134 21.428572
3.6014214 0.77281487 -0.047071658 33.222221
3.809238 0.40695477 -0.096953012 5
3.9969671 0.40937269 0.014195403 36.833332
4.5188904 -0.068460986 -0.079064228 2.5
4.9719968 -0.38460982 -0.074369736 16.222221
5.1296654 -0.51682711 -0.12533608 3
2.1538713 2.08461 -0.041752703 2.25
2.1476007 1.9802724 -0.038298681 6.75
5.2456708 -0.40028638 -0.069797322 13.5
5.3503618 -0.43759161 -0.0053833574 48
3.5603662 1.2663567 -0.027091295 1.125
3.5387721 1.1860492 0.057733849 1
3.9371955 0.87022924 -0.023069739 24.4
5.0633593 -0.051598936 0.0072883517 3
5.2952271 -0.091682002 0.0036588795 39
5.2983756 -0.1420857 0.01933909 42
3.5969927 1.3213831 -0.033249505 0
4.1568384 1.0959177 -0.089920491 8
4.2060184 0.94817185 -0.087054349 6.5
4.4064441 0.87754524 -0.0061707124 11.857142
4.530735 0.75107741 0.037303787 10
3.4091058 1.8177038 -0.027383558 3.5
3.4662166 1.7216181 -0.044229463 1
3.7686191 1.662122 0.066326365 47
4.428093 1.0493155 0.0087886602 2.3333333
4.4709258 1.014817 0.0022746436 2.5999999
3.5506608 2.0047975 0.031708822 9.3999996
3.5836539 1.8869077 0.0063883625 26.5
5.0041666 0.96188509 0.012705272 34
3.3919499 2.4744363 -0.028190538 1.5
3.5541325 2.3211813 0.013090745 14.8
2.7571352 3.2120624 0.008715719 45.333332
3.4206614 2.6119642 0.0034892783 11.555555
3.6062021 2.4279456 -0.031907551 3.25
2.7643535 3.2209764 0.018859461 40.166668
2.912818 3.2333736 0.014787272 43.555557
-10.663914 -2.0161021 0.14478076 2
-10.746721 -1.5794683 0.077726692 0
-9.9089489 -2.3353486 0.056228727 20
-10.012128 -1.9443414 0.064836986 20
-9.1269102 -1.3257097 0.14290664 3
-9.1713858 -0.94158816 0.083889544 2
-8.2948265 -0.77479279 0.020578362 1
-8.6805458 -0.14178446 0.10045192 0
-8.4481611 -0.43032175 0.15633336 1
-8.5793896 -0.063006043 0.037936457 1
-8.4625206 -0.060930774 0.1645416 1
-5.6707439 0.15668067 0.11384177 33.75
-5.2951384 0.26692587 0.2256743 46
-5.5025892 0.65975726 0.078758501 14.5
-5.3591194 0.45188469 0.1640268 12.5
-5.3443356 0.3831771 0.071467817 35.5
-2.3053172 -1.7445576 0.14082462 17
-2.3922226 -1.5169451 0.075020611 18.333334
-2.2034028 -1.6617439 0.19509962 1
-5.538353 1.2018356 0.092317663 31
-5.5237064 1.1840526 0.20917505 39
-5.6050987 1.5481843 0.077277809 1
0.056344032 -2.550189 0.059623722 15.666667
0.48373032 -2.8820777 0.00684008 5
-5.7439594 2.0057087 0.088435903 1
-0.48933363 -1.9654001 0.045237895 21.75
-0.41435766 -2.1447573 -0.0029201992 25
0.16116476 -2.5741482 0.10710674 20
0.64295816 -2.8871889 0.023922607 12
0.71423459 -2.9178553 -0.00099470466 18.333334
-0.74917984 -1.4214717 0.02462174 1
-0.52738547 -1.6742688 0.07432469 33.25
0.57456136 -2.6542983 -0.025144663 14
0.77770531 -2.6610103 -0.017038584 38
-4.6079798 1.6553622 0.12220591 1
0.71313334 -2.357183 0.034776527 62.5
0.77656662 -2.4411201 0.089837469 73
1.0072761 -2.6402478 0.0038998909 30.799999
1.1137201 -2.8257689 -0.029319771 43
-4.2848082 1.6130369 0.24074441 14
0.28419876 -1.7028401 0.079535469 43
0.34396505 -1.7942747 0.044616207 75
0.46462691 -1.9363002 0.0071175769 75.666664
0.61203051 -2.1777768 0.0016019009 63.666668
1.2497729 -2.5823321 0.0026635099 27.25
-4.0279608 1.7147888 0.081363373 0
0.29279733 -1.6925541 0.10890289 64
-3.5483997 1.686892 0.2270059 50
-3.4933178 1.7365535 0.15441534 47.666668
2.6695964 -2.4848042 0.011170566 46.5
2.7349012 -2.5039716 0.0046143439 86.5
-2.0654995 1.5102762 0.24460664 0
-1.906956 1.4917426 0.10306682 6
2.6468508 -2.1883168 0.14219087 42
2.8587015 -2.2460115 -0.015154213 54
3.0039444 -2.3954802 0.057469759 93.818184
-1.9530599 1.567601 0.10530614 0
2.978343 -2.1016626 0.060051881 58.166668
3.0684078 -2.2623436 0.0087707285 42.25
-2.2204273 2.1095819 0.21230167 0
3.4964447 -2.0830431 0.028955664 50.285713
0.036303997 1.0087733 0.07989496 30
3.7906275 -1.9793828 0.056442652 44.888889
0.0033578873 1.2259099 0.21016511 19
0.025033236 1.0885671 0.16213909 20
3.9993467 -1.7871052 0.1277993 1.6666666
4.0515299 -1.6727992 -0.0011559054 1
4.1752787 -1.7456027 0.033054318 2.6666667
4.3153262 -1.8437734 0.044699028 0
4.5497537 -2.1092606 0.037257224 0
4.2187543 -1.5059851 0.028334012 0.33333334
4.2604809 -1.5054377 0.0029292777 2
4.4411564 -1.7021507 0.14712918 14
4.7822757 -1.9687948 0.059396595 7
0.053658485 1.9403158 0.13099185 76.333336
0.082844257 1.9032015 0.11389067 102
4.4053535 -1.482343 0.031114955 1
4.9170694 -1.8877958 0.11495558 18
5.0292807 -1.8579391 0.11894294 13
-0.029247999 2.1902461 0.23471937 1
4.799118 -1.5333184 0.049455728 8
5.192234 -1.8391563 0.12477829 6
-0.22101498 2.6606956 0.18497798 2
0.080903769 2.3201375 0.23870361 0
0.43726134 2.1562319 0.21126881 0.75
3.8822527 -0.59067106 0.05296924 8.5714283
4.0829773 -0.64494514 0.12394496 43
4.1909599 -0.78706479 0.054031387 25
5.2644739 -1.685551 -0.0014502518 14
5.1485529 -1.2724216 0.1784417 28
5.2554359 -1.4023231 0.014399542 37
3.7906022 0.11181253 0.06340605 45
5.1111383 -1.0314586 0.17803791 42
3.9406085 0.15588647 0.098515227 67.571426
3.9829254 0.37376064 0.099879287 40.111111
3.5168524 1.0425884 0.11056216 3.5
3.8873906 0.83208764 0.15217501 17.5
5.0311975 -0.07345511 0.045601167 76
5.1368442 -0.23064946 0.1933845 12
3.5677114 1.2516032 0.075669587 1
3.5844305 1.1690221 0.10097607 1
3.902163 0.84019852 0.10535733 15.428572
5.2090535 0.017857254 0.086816803 7.8333335
3.7273049 1.2389293 0.19191551 2
4.5061026 0.81223011 0.07327877 16
4.5320511 0.78853786 0.058888003 27
5.2489381 0.062232047 0.16653875 3
3.7709353 1.6650933 0.080258593 38
4.4971695 1.0053309 0.089770712 4.2222223
4.7167201 0.7910893 0.1035744 28
4.7745972 0.82863307 0.090424642 7
3.4658515 1.9393553 0.09412989 1
3.7963052 1.7033226 0.12383311 14.2
4.8683429 0.87432241 0.076844722 45
3.6555116 2.046278 0.13581368 8.1999998
3.7292173 2.0154524 0.22035548 7
3.9363351 1.8983036 0.21840793 12
4.9384632 1.2000449 0.13743821 60
2.7483542 3.2097826 0.1670813 39
3.4597502 2.6718941 0.14146937 8
3.6391246 2.4338117 0.17239174 21.4
3.8287828 2.3008199 0.26837406 1
2.762012 3.2113428 0.17948163 35
2.9118543 3.2245693 0.17007095 38.666668
3.4936509 2.6895013 0.18474182 11.714286
3.7178373 2.63204 0.29087451 30
4.4460983 2.2309842 0.28342813 2
4.5305786 2.5545382 0.16404372 0
4.6152191 2.4995027 0.24591005 21
4.0761027 3.0641398 0.21272641 1
4.6053076 2.5910125 0.20854348 0
-9.9114618 -2.3838491 0.2368153 20
-10.022942 -1.9529002 0.35672182 6
-9.0664005 -1.3634312 0.20841071 2
-9.1426153 -0.96289891 0.31889376 1.5
-9.3706455 -0.13475405 0.31028467 1.6666666
-5.6577511 0.12221006 0.32449165 19
-5.3020372 0.26497585 0.27086028 56
-5.4264364 0.57618904 0.37460291 14
-2.3426039 -1.5975306 0.28757054 22
-2.2009614 -1.7007253 0.33502296 8.5
-5.5350475 1.1523676 0.30251262 49
-0.48453236 -1.9470752 0.26360857 16
-0.52680755 -1.6850647 0.26323232 38
-4.3872967 1.5378745 0.28178498 2
0.76589024 -2.4423099 0.20042938 70
0.28469992 -1.7073938 0.25824541 52.5
1.2617432 -2.5779934 0.18508106 29
0.26692605 -1.6482593 0.20579225 102
-3.6807635 1.6663418 0.45261949 16
-3.4987237 1.7360703 0.39082405 36
2.8456686 -2.4471974 0.24959344 87.5
-2.0493953 1.528168 0.35715201 0
2.9435236 -2.1458178 0.28171131 48
0.01254487 1.2222732 0.35889652 14.5
0.043538332 1.1029291 0.29047653 9
4.0016184 -1.7955558 0.2650167 2
4.3919058 -1.6995403 0.29710904 4
4.7923756 -1.8349659 0.22701922 12
5.0490084 -1.8360562 0.24490166 5
-0.13596821 2.5007672 0.40921456 34
0.44711602 2.146162 0.4766812 1
5.1355901 -1.479033 0.24677476 9
5.2657795 -1.6555876 0.25809661 18
5.4858966 -1.5301951 0.27352935 8
5.423646 -1.1202053 0.33184096 10
4.0855079 0.17057848 0.25836238 1
4.130281 0.21751702 0.33904138 6.3333335
5.36833 -0.64179671 0.26785105 8
1.3956723 2.7866154 0.37258378 9
3.8461225 1.0991622 0.31319231 1
3.9640999 0.98465109 0.43255585 2
5.2421861 0.028099447 0.27377179 3
3.8590727 1.108199 0.43628573 1
3.9994762 1.0165503 0.31849369 1
5.2492237 0.066329032 0.39383265 1
3.7960696 1.9782327 0.36079907 2
3.9269474 1.8975879 0.35907826 2.5
2.7458365 3.1879973 0.32140374 46
2.9115839 3.224062 0.32554248 47
3.6078618 2.6543503 0.36483023 1
3.7562723 2.6332073 0.3675721 2
3.9229314 2.400609 0.35115749 0
4.4532423 2.2370362 0.36052266 1
3.7828565 3.4101396 0.4461 14
4.6091108 2.5902905 0.39974359 1
-10.845731 -2.0977983 0.53429484 1
-9.9156609 -2.3668451 0.49177387 9
-9.0824995 -1.3714397 0.47717059 2
-9.3868065 -0.13613346 0.51663041 2
-5.4929228 0.19148919 0.50501728 15
-4.8940344 1.6430918 0.51949698 4
-0.54348779 -1.6958972 0.39867529 43
0.84710288 -2.5619845 0.47733998 59
0.2379868 -1.6947843 0.46762383 2
0.18473816 -1.6005683 0.46920356 51
-3.6925375 1.6441939 0.60216129 2
2.6919353 -2.4884057 0.47538424 43
-2.011626 1.4872693 0.66098839 0
2.9524698 -2.4167113 0.56578839 61
-2.2109983 1.9980227 0.50923932 0
-1.9090292 2.0763664 0.49227229 51
3.4782252 -2.0872698 0.54690623 41
3.8615503 -1.9517006 0.39394423 52
0.045954943 1.2191206 0.58104122 7
0.42809403 2.1312041 0.66358 1
4.0456858 1.2017677 0.47517279 0
5.2629004 0.033470899 0.56582856 1
4.4567661 2.2390084 0.49558029 1
-10.443436 -1.8182471 0.74988115 30
-9.9084091 -2.3742046 0.70992488 16
-9.1483622 -0.94901764 0.69023228 1
-9.3527327 -0.14569768 0.72075754 1
-5.6838074 0.11502898 0.7035206 12
-5.5015774 0.46646112 0.69939864 7
-6.3382483 1.9897984 0.82607216 6
0.78780735 -2.4732456 0.70314789 56
0.24627328 -1.7264671 0.68925279 8
0.229177 -1.6417969 0.68304998 70
-3.6013572 1.6783608 0.85726315 36
-1.9297884 2.0818176 0.69792241 39
4.0793433 -2.1397016 0.65333629 35
-0.2033484 2.4103112 0.78520948 0
4.9055471 -1.4863576 0.74488181 1
4.8742657 -0.02412805 0.70598626 2
4.6002784 1.2333233 0.78946918 6
2.7362566 3.1863966 0.75753057 33
2.8897405 3.2276273 0.76930374 31
3.8933282 3.4923205 0.86979127 47
-9.0775909 -1.339753 0.94906205 2
-9.293148 -0.88004744 0.97415137 3
-5.6573668 0.18883115 1.0359435 5
-5.5167046 1.5632483 1.0772724 2
-0.53083682 -1.882014 0.8853941 6
-0.56573963 -1.7181156 0.87804276 26
-1.9975088 1.5483329 0.94860542 0
-1.9793618 2.0650291 0.99924648 7
5.4992752 -1.5375524 0.89483654 6
4.7141299 1.9866296 0.96214759 48
4.3180385 2.8507643 1.1012769 7
-9.8843174 -3.4080887 0.99182433 18
-10.802417 -2.1523399 1.0767852 1
-9.9242973 -2.3807034 1.0030589 2
-6.0832872 3.9432988 1.302086 2
-1.9598572 2.0628715 1.4226791 30
-1.325943 2.1802592 1.2961032 2
-9.8885689 -3.512321 1.5142318 19
-9.9195242 -2.3956594 1.5167644 22
-10.029117 -1.0187757 1.5437871 23
-6.1258497 1.0162773 1.6389054 26
-10.346423 -4.1612349 1.5739195 18
-3.6017292 1.6560895 1.7751887 32
-3.6705086 1.8918918 1.8192561 6
-7.3631525 -4.5532036 1.8686848 6
-7.6145897 -2.0140121 1.843578 7
-7.719883 -1.4919556 1.8621279 16
-8.4231977 -0.63582063 1.9990462 3
-8.0492907 -0.043868944 1.9453099 9
-4.3309755 -2.8600416 1.8974091 2
-4.6574259 -1.2672865 1.9179139 6
-4.7033739 -0.95541751 1.9279103 28
-4.7378626 -0.36390594 1.9444093 3
-4.8417559 0.75109828 2.0213134 15
-4.271327 0.9082793 1.8812089 34
-5.0782423 -1.5671852 2.0338416 12
-9.8785477 -4.9975986 2.3130569 40
-9.9166765 -3.6786079 2.2780378 37
-6.4712176 -1.8272753 -0.85211402 37
-7.0636811 -0.33258155 -0.85807854 5
-6.1050296 -0.076189429 -0.87739766 5
-5.1798511 -1.0579571 -0.94922799 47
-3.1916823 -2.7914712 -0.97618133 1
-5.2757449 0.1129902 -0.92585558 47
-5.1847024 0.33930036 -0.90983611 10
-3.9388099 -1.2291846 -0.9716602 1
-4.353148 0.47653443 -0.7997483 1
-2.3947225 -1.8598297 -0.9946925 6
-2.0347147 -1.8659052 -0.92787254 20
-2.2997155 -1.2732505 -0.92455357 1
-4.2213516 1.4199342 -0.77969295 0
-2.0780435 -1.3702798 -0.88924098 8
-3.989193 1.613263 -0.75187701 0
-3.9082212 1.5929716 -0.91748154 1
-3.4878564 1.6266638 -0.85399497 46
-3.4870596 1.8774545 -0.85957772 27
-0.89576411 -1.4992914 -0.94582802 36
-0.078498125 -2.2738233 -0.90285975 1
-3.7226672 2.6618354 -0.74049908 8
0.062827587 -2.2800634 -0.87670535 14
-2.4049535 1.5331606 -0.89968306 0
1.0233053 -2.7226076 -0.84624922 43
1.2120204 -1.7112463 -0.89882493 0
-0.19782639 2.0059443 -0.78734779 41
-0.11241412 2.525039 -0.86155802 2
4.499836 -1.6116228 -0.8032853 0
1.9566114 2.0754216 -0.90168554 0
1.9740165 3.0537024 -0.7614786 41
4.8981867 -0.77102119 -0.78836644 10
3.3836429 2.634491 -0.73134339 1
3.4647746 2.9900417 -0.8222357 15
3.8658485 2.5231946 -0.77346516 1
-7.4191213 -0.88866049 -0.6283465 1
-6.4727893 -1.769076 -0.74728364 22
-7.0775704 -0.34270805 -0.64450282 5
-6.9975743 -0.33450913 -0.74509203 5
-5.0153394 -1.8371828 -0.82137263 65
-6.0855937 -0.075711831 -0.70964754 7.5
-5.1836462 -1.0137969 -0.80395603 27
-5.9747453 0.88470185 -0.63479513 20
-5.2752843 0.13266443 -0.63168818 45.5
-5.269074 0.10830198 -0.78081006 20
-5.2095909 0.3372193 -0.76989222 8
-5.4093838 1.0059772 -0.67446482 18
-4.9421639 1.0219285 -0.73233187 26
-4.3122082 0.67403793 -0.61982095 30
-2.0968156 -1.7960445 -0.72950763 12
-4.1812901 1.4278097 -0.64850456 0
-2.1403251 -1.3302284 -0.70056742 14
-4.0366049 1.5977294 -0.63351268 1
-3.5073833 1.6478156 -0.63479936 13
-3.5329661 1.8645624 -0.58188319 31
-0.5488534 -1.9365745 -0.67250127 17
-0.60488534 -1.6410424 -0.64278179 23
-3.7171564 2.630409 -0.61381608 9
1.1406651 -2.1278598 -0.66517508 38
1.7492106 -2.3946288 -0.69321519 1
-0.058288813 1.048929 -0.62539029 38
2.508924 -2.2371359 -0.64643341 35
2.6287856 -2.156002 -0.62913632 30.5
2.8905351 -2.4230449 -0.72721952 71
-0.090530157 1.618216 -0.70419145 35
0.2208358 1.2910259 -0.58670527 59
2.9031756 -2.0724995 -0.6275152 31
-0.17007446 1.9630088 -0.5338918 25
2.9626448 -2.0772011 -0.63499969 40
0.37535572 1.7231408 -0.62171054 47
3.5404751 -1.7745726 -0.63828981 13.5
4.4808722 -1.8543398 -0.60344464 1
4.3250494 -1.4000859 -0.72562885 1
4.4378295 -1.6416427 -0.79444218 0
4.7018328 -1.9379481 -0.65021926 0
1.4498665 2.6811793 -0.68843865 43
4.1923761 -0.86254376 -0.6123783 1
2.7348876 2.0260358 -0.52274668 9
4.8292866 -0.41623804 -0.74165308 1
3.6160104 1.8496886 -0.59754962 2
4.3553057 0.82405186 -0.6182341 1
4.4982986 0.68630934 -0.64630425 2
3.9764175 1.9930958 -0.68922919 5
4.0935531 1.9880215 -0.7105763 114
3.7725368 3.4065146 -0.64962095 23
-7.3715787 -0.87903142 -0.56923211 4
-6.4758096 -1.7753593 -0.49185675 41
-7.1067157 -0.36177531 -0.45853749 12
-6.9456239 -0.34132662 -0.58203292 14
-5.4311528 -1.5095032 -0.56080866 10
-4.1422453 -3.2704458 -0.55225623 58
-5.4034014 -1.1282189 -0.54562044 38
-6.0826116 -0.082237199 -0.42231888 7
-5.1879048 -1.0472845 -0.46291158 55
-5.651289 -0.012259219 -0.46480972 33
-4.1203041 -1.522002 -0.54274982 7
-4.0994577 -1.5557305 -0.44902742 29
-3.2468877 -2.827266 -0.5403313 33
-5.2911782 0.21963587 -0.43668926 43.5
-5.2705154 0.10198577 -0.50244248 24
-5.1856923 0.33315513 -0.44914562 8
-4.8226447 0.43123767 -0.38216588 16
-4.9731851 1.0890242 -0.3807399 16
-4.643394 1.4329579 -0.43769255 0
-2.2950878 -1.3150136 -0.43784308 1
-4.2454805 1.395156 -0.48577845 0
-2.0848308 -1.2605742 -0.52113765 8
-1.95292 -1.6415178 -0.4866429 20
-4.2820716 1.8421607 -0.37071419 2
-4.0225158 1.5694946 -0.46682668 0
-4.0026221 1.4091892 -0.53911662 1
-3.5321894 1.6010723 -0.42699856 24.666666
-0.51519823 -2.0578582 -0.44315338 8
-3.7536716 2.7189033 -0.45090765 6
0.3836025 -1.8656067 -0.51751786 67
1.0441405 -2.7571113 -0.48825938 51
0.91243291 -1.7895712 -0.52121651 10
1.1483011 -2.1132679 -0.47621357 10
-0.044204473 1.0668014 -0.43153846 21
2.6239614 -2.4827235 -0.524288 80
-0.090598822 1.2591825 -0.45396844 29
0.1416806 1.3126189 -0.4187274 27
3.0603135 -2.3803341 -0.52696478 65
-0.019733429 1.8247446 -0.37095144 59
0.23973036 1.5106226 -0.42216983 65
0.11996937 1.916854 -0.42361921 52.5
0.2801795 1.692242 -0.43596137 12
0.92187977 1.7925156 -0.36511505 9
3.7156897 -2.028074 -0.52331167 0
3.8467402 -1.6198238 -0.47204053 0
1.57463 1.9135091 -0.48985189 7
1.524806 2.2200828 -0.38422325 5
3.8897567 -0.89239365 -0.53951502 1
4.5306497 -1.6645032 -0.45446545 2
4.524878 -1.8499371 -0.47469956 0
2.1565185 1.5902519 -0.38659054 13
4.4966831 -1.5131291 -0.43389273 1
2.5538676 1.5543208 -0.39380524 10
3.688602 -0.0049880035 -0.4087837 100
2.8153536 1.9368591 -0.34141725 19
3.657161 0.67893136 -0.42780536 6
3.9321132 0.3239893 -0.47823822 2
4.7077289 -0.69890332 -0.4548088 19.5
4.8928008 -0.8410551 -0.43157437 12
3.5881732 1.145012 -0.4691574 2
4.6996374 -0.43172884 -0.49663281 2
3.6762402 1.3358855 -0.51740295 0
4.0572791 0.81889892 -0.37113154 0.5
5.0326805 -0.4524782 -0.43092462 2
3.4139915 1.9360768 -0.39383894 0
4.4858122 0.81528825 -0.44922137 14
4.6485267 0.77513343 -0.47791213 2
3.467145 2.6794832 -0.3757906 2
3.7062228 2.7347174 -0.39905551 0
-8.3435631 -0.54095769 -0.25379315 0
-7.0932603 -1.7098809 -0.25092217 20
-7.3767715 -0.90879983 -0.32994765 6.3333335
-6.470448 -1.8420134 -0.39154869 22
-7.2439218 -0.25563595 -0.27280399 0
-6.0810819 -0.087432846 -0.37468472 9
-5.2093458 -1.0402737 -0.35646307 38.5
-5.1298399 -1.3277106 -0.31827867 5
-4.4688015 -1.8804007 -0.34755498 3
-5.6398878 -0.030507684 -0.30639985 15
-4.1018696 -1.5131016 -0.28003708 27.5
-4.100018 -1.5601116 -0.34357542 17.666666
-4.0207505 -1.7981141 -0.36036229 4
-5.2787399 0.10043445 -0.37373221 37
-5.2668786 0.098281801 -0.28723592 44
-5.4312434 1.0005859 -0.21037978 20
-4.8192563 0.45438677 -0.30081499 19.5
-4.3035321 0.64168292 -0.34680566 15
-4.7135625 1.4683272 -0.19818124 0
-2.4193196 -1.4507409 -0.3313244 14
-2.2590046 -1.7236375 -0.29227588 20
-2.3544655 -1.3849434 -0.39223495 24
-2.1999764 -1.4605337 -0.26390666 15
-2.1495013 -1.6480002 -0.28246641 15.5
-4.3249335 1.5378734 -0.29832047 1.5
-4.271143 1.8352649 -0.21504459 2
-3.5067825 1.5973052 -0.2286272 44.5
-3.5504522 1.8484957 -0.2431792 34
-0.5714941 -1.8484654 -0.31892702 35
-0.58689189 -1.608891 -0.30185035 40
0.49267316 -2.6164825 -0.24451318 36
0.66482651 -2.6294644 -0.35114771 36
0.77207267 -2.6245215 -0.26881152 43
0.37482524 -1.8544788 -0.27662051 69.5
0.37195945 -1.8703767 -0.28670895 76
1.0138359 -2.6190588 -0.29209107 25
1.0483416 -2.760772 -0.32731596 54.5
-1.8748994 1.4953892 -0.34312099 0
1.1938441 -2.5521259 -0.24672967 49
-1.7533464 1.6431122 -0.16186723 34
0.92441821 -1.7953176 -0.34121618 16
1.1504508 -2.1177013 -0.29060858 34.333332
1.2914695 -2.5815201 -0.27815741 1
1.721993 -2.4546752 -0.25319156 1
-0.030864716 1.0520442 -0.25028551 4.6666665
2.6154037 -2.4864936 -0.41294634 58
-0.11439037 1.4335771 -0.21915382 32
-0.0064325333 1.0873537 -0.20627004 87
2.5471139 -2.2476847 -0.22822824 40
-0.21892643 1.7132888 -0.13870785 63
0.048954248 1.5235347 -0.21012121 32.333332
0.10946238 1.3257794 -0.26101908 26.5
2.8742118 -2.1233346 -0.2487863 40.5
3.0148451 -2.3982899 -0.36194694 59.666668
0.1962986 1.5919297 -0.1848734 46.285713
0.1994977 1.5076035 -0.3197245 55
0.15337491 1.9532819 -0.21418688 98.5
3.7964787 -2.1322439 -0.35502803 2
0.6352067 2.2321148 -0.21217239 7
3.8925247 -1.6746336 -0.37905067 1
4.0576682 -1.6945354 -0.32762361 0
3.6774364 -0.81854701 -0.2313253 7.5
3.6739328 -0.85159856 -0.20848909 7
3.776195 -1.0943228 -0.384942 7
4.3285022 -1.7539147 -0.24250692 0.66666669
3.683495 -0.77979547 -0.25347486 3
4.1364355 -1.0638653 -0.19923946 1
4.464509 -1.4865539 -0.22141275 0
4.516243 -1.6647151 -0.3034831 0
4.5863438 -1.7079245 -0.20912847 0
2.1308341 1.775681 -0.20959458 22
2.0971012 1.7056859 -0.21361428 40.5
3.9551132 -0.67983937 -0.27343848 4.8571429
4.1017551 -0.84764969 -0.24267006 13.25
2.2389555 1.8602421 -0.16753456 4
2.4216723 1.6438208 -0.1479381 20.5
2.5160191 1.4992096 -0.25103614 57
3.7131519 -0.0030673631 -0.22173548 40
4.1383276 -0.69174933 -0.17773902 0
2.5480752 1.7150505 -0.20914918 15
3.6387405 0.71858889 -0.21423325 2
3.7984595 0.39032391 -0.23645505 21
4.0054398 0.3672975 -0.21054992 1
2.8675117 2.0552206 -0.26566753 24
3.5699668 1.2193023 -0.21061641 2
3.7952452 0.82421595 -0.18662193 6
4.846426 -0.48776966 -0.32562047 2
5.1681461 -0.80988133 -0.27301133 2
3.4049873 1.8612046 -0.17015752 2
3.6316929 1.2624357 -0.151434 1
4.9900355 -0.47474742 -0.22843647 2
2.92063 2.5242856 -0.25045389 11
3.4993944 2.0610833 -0.23810908 0
3.4050875 1.9173287 -0.14012536 7
3.8355231 1.6006838 -0.29781619 30
2.8283532 3.2257142 -0.11654695 38.5
3.3931794 2.5282884 -0.10769107 2
3.5186982 2.0761621 -0.31250468 1
3.8694415 1.7152954 -0.21664912 6.5
4.4583058 1.0312272 -0.26737952 1
4.5823488 0.99488068 -0.28047758 1
2.9566274 3.2401278 -0.1484701 55.333332
3.4469104 2.596772 -0.20484355 1.6666666
3.5774179 2.5083561 -0.23015618 8.6000004
3.523335 2.7401273 -0.23762858 10
5.0063415 0.82732791 -0.22390258 76
-9.1524067 -2.2481606 -0.11838614 14
-9.1551933 -2.1210766 -0.18210873 15
-9.1207752 -2.1233714 -0.24802473 10
-8.3016968 -0.43175685 -0.18960199 1
-7.3736043 -0.91918236 -0.12704998 15
-5.4261642 0.067743242 -0.031885646 6
-4.1424685 -1.4777739 -0.13141984 24.666666
-5.4981966 0.521806 0.021787789 14
-5.3048019 0.13837613 -0.050701328 33.25
-5.2604809 0.094865903 -0.11570332 60
-4.1023736 -1.4817455 -0.20490557 41
-6.3205495 1.8507464 -0.00073381886 7
-5.2364707 0.32788309 -0.11009233 8
-2.9014182 -2.5676296 -0.20393014 0
-5.5366664 1.0395001 0.010937998 37.5
-4.8325109 0.39897808 -0.059730135 29
-2.7304373 -2.5193908 -0.11831649 0.5
-4.8123126 0.45110056 -0.098866828 30
-2.5108848 -2.5529232 -0.10050284 1
-4.977767 1.0819541 -0.047248535 25
-4.9881167 1.0639055 -0.089717068 24
-4.8288717 1.2632184 -0.00051601604 33
-4.3110933 0.65545279 -0.065539367 38.75
-2.3349981 -1.8443522 -0.12025125 14
-2.4489188 -1.4059826 -0.11578613 24.142857
-2.2900081 -1.8091159 -0.13849658 28.5
-2.4277105 -1.3601608 -0.16290167 7.5
-2.1873469 -1.504491 -0.19909814 22
-3.5218101 1.6174477 -0.041279078 25.75
-3.4879508 1.9237328 -0.060854517 14
-0.57427096 -1.8228688 -0.045147173 26
-0.53213143 -1.9631557 -0.058121219 34
-0.42976975 -2.1603415 -0.13956159 17.200001
-0.6137557 -1.6152498 -0.049063556 14.5
-0.58379292 -1.6621786 -0.14577094 25.5
-0.55889177 -1.8324702 -0.091862433 36
0.53178239 -2.5735943 -0.065680586 7
0.77166736 -2.6494484 -0.16843146 44.5
-2.0651817 1.4282471 -0.076187842 0
0.35313606 -1.8461845 -0.10819878 51.625
0.40295482 -1.9041309 -0.14063495 55.5
0.57105732 -2.2049308 -0.091835707 10.5
0.58957636 -2.2680352 -0.055188216 31
0.89382446 -2.6278002 -0.11882361 33.75
1.0613244 -2.7757466 -0.13264561 53.900002
-2.0162206 1.6168751 -0.020380121 0
-2.0064292 1.3913112 -0.036453731 0
-1.8983743 1.3993737 0.002718851 16
1.0569824 -2.5911868 -0.190409 37
1.2708073 -2.587851 -0.060365632 2
-1.8162427 1.6015805 -0.049787305 5
0.90656066 -1.8898075 -0.05916813 1
1.1479614 -2.1391447 -0.13705412 37.400002
1.3183188 -2.569015 -0.16735438 4
0.93003535 -1.8046703 -0.098508783 1
1.7911505 -2.4552157 -0.14684358 17
-0.20498991 1.1476898 0.036560383 0
-0.017621279 1.0531603 -0.095447652 2.5
2.5314612 -2.2606547 -0.044404171 44
-0.087480068 1.4255066 -0.048949458 67.75
0.012811899 1.050401 -0.046032131 6.6999998
2.5260613 -2.2245696 -0.056106187 42
2.6307702 -2.2387581 -0.099633329 48.25
2.8650641 -2.433044 -0.14551666 101.25
-0.13076448 1.7811217 -0.00073714554 87
-0.20716786 1.7157984 -0.036667302 68
0.089440584 1.5065573 -0.023160744 30.25
0.063635111 1.3570148 -0.043036036 13.428572
2.8628879 -2.1332583 -0.068068102 42.5
2.958951 -2.3858705 -0.11619935 80.199997
2.9991443 -2.3975129 -0.13736716 77.900002
0.170524 1.619598 -0.044003852 45.777779
-0.01315403 2.1555626 -0.038897678 37.857143
0.088987827 2.0804758 0.0089693144 36
0.13897371 1.9567581 -0.07546512 94.25
3.4560251 -2.0837433 -0.096995704 43
3.6947303 -2.0223999 -0.085459433 31.714285
3.8537917 -2.1929083 -0.18252704 14.5
3.8242171 -1.8524113 -0.12087648 6.4000001
4.010839 -1.9584733 -0.038437955 0
4.0262747 -2.1817007 -0.18824315 10.5
3.8722239 -1.5793047 -0.10089593 5.0666666
3.9629364 -1.7526344 -0.14007044 0.33333334
4.1917582 -2.0860817 -0.11952948 0
3.6744401 -0.79781032 -0.16997534 4
3.661907 -0.86675072 -0.17372519 3
4.1662674 -1.605405 -0.13034555 0.33333334
4.3541694 -1.7807165 -0.11798563 0
4.4864216 -1.8590958 -0.10812546 1
3.8540845 -0.69461775 -0.093211383 55
3.8883104 -0.7307899 -0.15852985 29
4.0651259 -1.1091707 -0.15724155 2.5
4.3489437 -1.440431 -0.14857695 0
4.4730392 -1.6346855 -0.086091883 0.75
4.5039148 -1.8338085 -0.020073012 0
4.6931896 -2.0581474 -0.083704263 0
2.1633232 1.7781343 -0.097072862 36
2.2303782 1.6832626 -0.069067061 33.666668
3.8451371 -0.65048575 -0.020769339 4.7142859
3.9812388 -0.68481243 -0.089298047 8
4.1339178 -0.86991853 -0.072277643 17.615385
4.6192532 -1.5992366 -0.031465776 1
4.6725469 -1.6487968 -0.13327482 0.66666669
2.2046764 2.1014519 -0.094781302 3
2.183718 1.9784855 -0.047431149 7.6999998
2.4264507 1.6332384 -0.055001073 40.625
3.647274 0.18895486 -0.12785789 5
3.7255518 0.048852246 -0.072294265 7.5
3.8220804 -0.00052043423 -0.11380608 10.5
4.1252513 -0.6878016 -0.15145901 0
4.1617193 -0.73937839 -0.11840809 0
4.9181738 -1.5104364 -0.01254753 6
5.0075936 -1.6484096 -0.016268909 3
3.7553229 0.35403588 -0.077221192 14.375
3.7944496 0.093421683 -0.050439663 3
3.9115362 0.021590624 -0.020938061 25.714285
3.6111569 0.74691075 -0.05156403 33.299999
4.0086961 0.36965582 -0.02360855 15.333333
5.392602 -1.5309893 -0.014172498 20
3.5874333 1.2311049 -0.027047612 1.1666666
3.6795502 0.95046884 -0.012673378 2
3.7671127 0.96546817 0.0022142883 2
3.9161229 0.79049534 -0.0029356405 9.5555553
4.0374117 0.40474188 0.012247536 24
4.9723763 -0.65855616 -0.11151541 9
5.115077 -0.86699849 -0.14289105 7.5
3.6386132 1.2879909 -0.0052340329 0
3.941582 0.88416398 -0.04239931 12.333333
3.9828556 0.79700327 -0.13682905 11
4.3065677 0.4879505 -0.036270402 51
4.9415555 -0.43656945 -0.120117 8
5.1321063 -0.53171492 -0.13223332 1.3333334
5.3650036 -0.7178902 -0.11070143 13
3.4950032 2.0711958 -0.0051232465 1.6666666
3.4726 1.9975716 -0.094695859 5.3333335
3.632921 1.8721147 0.036409449 42
3.7945976 1.5975162 0.020829152 28.166666
4.1938334 0.88382781 -0.098719053 11.75
4.4072418 0.83267421 -0.02844695 14
4.4997768 0.68362421 0.014002444 15.4
5.3178978 -0.53097945 -0.056049027 12
5.3753548 -0.64697874 -0.0021183304 34
2.8311095 3.2194066 0.0037737116 35.111111
3.3991394 2.5033877 -0.046898268 1.4
3.5072684 2.0723183 -0.0016491674 2.5
3.5817575 1.9911093 0.00071229041 8.5
4.4794273 0.86033994 -0.0046800785 7.5714288
2.9573488 3.2385051 0.0031095445 45.555557
3.4056458 2.5286791 -0.057601362 1
3.5975311 2.4798756 -0.0073363557 23.5
3.6427197 2.342943 0.0403933 21
3.5142221 2.7799394 0.044295751 10.6
3.7112274 2.5939522 -0.0056355894 8.1999998
4.2945528 1.9563802 0.0139695 1
4.4736958 2.1039486 0.068382487 0
-9.9657345 -2.1515985 0.01931642 20.666666
-9.1182442 -1.1714662 0.071245752 2.5
-8.7501011 -0.37784499 0.055089846 0
-8.7077999 -0.34862018 0.097692527 1
-8.2016258 -0.96849674 0.10058096 1
-4.2901587 -3.1222656 0.045645081 2
-4.2660022 -3.2117312 0.10589357 1
-5.6613083 0.014694106 0.10026343 44.666668
-4.2316594 -1.4914836 -0.020205613 6
-5.4831433 0.50500035 0.087734044 16
-5.348166 0.29642749 0.16908035 18
-5.3226795 0.18636709 0.11540048 37.666668
-2.8815513 -2.6260476 0.023163177 0
-5.5243716 1.0267596 0.14514661 43.5
-2.7150588 -2.5424232 -0.023970421 1
-4.8644104 1.2661937 0.12304433 13
-4.3128309 0.6550414 0.10352872 52
-2.5043797 -1.7460147 0.17885557 0
-2.4370084 -1.4121555 0.055732757 22.333334
-2.3722687 -1.5559036 0.17591634 10
-2.3397269 -1.8065664 0.047570989 34.5
-4.5771031 1.4299575 0.16433764 1
-4.3458023 1.565796 0.24202171 18
-4.3187542 1.7897382 0.24856988 17
-3.6829238 1.8062131 0.23321679 4
-3.5582347 1.580878 0.1538631 44.333332
-3.550766 1.8612689 0.11649931 39.666668
-0.52949142 -1.9666468 0.083997779 21.5
-0.45370054 -2.1065218 0.014945921 20
-0.58228135 -1.6822795 0.083573014 22.5
0.0045597553 -2.5004942 0.053628042 27.25
0.38164306 -2.7354121 -0.035151005 35
0.43259871 -2.8680592 0.00024275109 6
-3.7487698 2.7011299 0.18950588 6
0.59409559 -2.8542955 -0.018709637 18
0.70937598 -2.9233158 0.0358878 18
0.68000019 -2.6293876 0.028115623 32.5
0.73411536 -2.6401792 0.053358808 18
0.84431708 -2.8924479 0.0080068968 26
-2.0994592 1.4173062 0.23307559 0
0.24370682 -1.6622812 0.088995792 83.666664
0.29793561 -1.7490704 0.056763206 71
0.386127 -1.9131378 0.013001245 33
0.55574071 -2.1728091 0.0087754894 60
0.64155293 -2.3202302 0.053674191 44.125
0.89608157 -2.608429 0.0022892132 33.333332
1.0566752 -2.8491199 -0.018387504 43
-1.9554114 1.5757095 0.056297772 0
1.0987055 -2.5696304 0.081299573 47
1.1880815 -2.5622814 0.033557925 36.799999
-1.9325123 1.6785823 0.16072094 0
-1.8141909 1.6167481 0.18112147 6
1.3308907 -2.5872879 0.040537152 3
1.769682 -2.4680378 0.069936924 11
2.5043399 -2.2386117 0.034272168 36
2.606756 -2.490299 0.061208658 95.400002
0.010418415 1.2315696 0.16967386 36.285713
0.033548832 1.0687604 0.077869564 24
-0.11459398 1.828138 0.1517815 69
0.060623169 1.4797165 0.12410729 29.666666
0.033631086 1.3878207 0.18217525 32.5
2.8597488 -2.1656139 0.024087768 51.5
2.9211955 -2.4157813 0.10372739 94
2.9945912 -2.3987622 0.024101462 84
-0.27027631 2.1031058 0.25953674 59
-0.037361622 1.9207928 0.16711569 68
-0.022307634 1.8573771 0.10149357 73
0.12817562 1.6635802 0.13722727 41.799999
2.9631679 -2.1005907 0.077695563 39
0.10111046 1.9905492 0.11327038 58.166668
3.3892324 -2.1089425 0.044544127 43
3.4675131 -2.0900137 0.031532429 44
3.724453 -2.008338 0.050483413 44.5
3.9545693 -1.8286895 0.10581898 3
4.0524855 -1.7326494 -0.0016387925 1
4.1687613 -1.8030214 0.036636252 0.5
4.3833213 -2.1040807 0.02687924 3.5
4.1824293 -1.5581123 0.017713696 3
4.3617849 -1.734229 0.081066601 1
4.348712 -1.523728 0.035606068 1
4.4938745 -1.5819454 0.036239896 0
3.8613691 -0.62733734 0.057319921 2.7142856
4.1474695 -0.82326001 0.051102754 13.5
4.7548742 -1.6150209 0.066208355 6.5
4.7627439 -1.5378599 0.013734192 5
3.9706295 0.0027885139 0.081574753 35.375
3.5337534 0.92950344 0.057516649 3
4.0193768 0.36011928 0.10432564 18.555555
4.0211105 0.087343112 0.19730523 12
5.2955637 -1.5131313 0.027437337 49
5.4803476 -1.6838933 0.025478154 103
5.5618725 -1.7581394 0.15966186 31
3.5798812 1.1700681 0.074134529 1.3333334
3.5382824 1.0454178 0.091733411 5
3.8166294 0.91051346 0.21872419 16
3.8884039 0.79493397 0.10147797 11.25
4.9227767 -0.45134634 0.19640744 6
3.710196 1.2047271 0.12773845 1.3333334
3.7350392 1.1917846 0.20799026 4.5
3.7932758 1.6570327 0.10997091 14.5
4.4881887 0.75004959 0.056199722 18
5.3405867 -0.51852131 0.093431085 8
5.354578 -0.56874609 0.06709072 5
2.8040512 3.1969957 0.18429127 38.875
3.5493073 2.1137869 0.092128694 0.5
3.7095788 2.0474072 0.14818302 5.4000001
4.527504 0.87415177 0.081847966 2
4.7071495 0.73152393 0.096072614 29
2.9605978 3.2136393 0.18643409 40.625
3.618454 2.4566135 0.17379194 18.5
3.6122122 2.3659346 0.10712703 10.666667
3.8486538 2.2657902 0.257994 12
3.9521523 1.8532128 0.21131554 10
3.5355387 2.77125 0.15744194 13.285714
3.9416399 2.4250607 0.21851775 0
4.0015907 2.2773023 0.2647486 0
5.0184813 0.83750767 0.059732914 54
3.8052807 2.692147 0.28665799 12
4.3777866 2.0306973 0.085061021 1
4.4674263 2.196202 0.2285341 2
4.11763 3.0258608 0.21406344 1
