# .PCD v0.7 - Point Cloud Data file format
VERSION 0.7
FIELDS x y z intensity
SIZE 4 4 4 4
TYPE F F F F
COUNT 1 1 1 1
WIDTH 1218
HEIGHT 1
VIEWPOINT 0 0 0 1 0 0 0
POINTS 1218
DATA ascii
-5.1266923 1.4927871 0.19794349 2
-4.3417115 1.9294831 0.25685295 0
-9.9813566 -2.6629114 0.072052553 20.676586
-9.9844389 -2.364645 0.039223667 22.557142
-8.189147 -0.97553504 0.074897423 0.5
-5.9378781 0.928864 0.16586484 46.666668
-5.5726981 1.423535 0.20641744 8
-5.2481313 1.4263953 0.19968452 4.3333335
-4.8229771 2.0328407 0.10493273 0.58333331
-9.9890137 -2.308291 0.039535154 19.375
-9.9924889 -2.1567793 0.040389102 20.875
-6.4677463 0.82675087 0.17316692 16.416666
-6.1921744 1.0995903 0.17127919 32.558079
-6.1396904 1.2509632 0.072293274 25.291668
-5.8953671 1.4738086 0.17057444 1.75
-5.6732631 1.4515897 0.09769468 5.2222223
-5.2392259 1.8116056 0.125065 0
-10.514577 -2.1711197 0.0048629232 0
-9.1639528 -0.9630841 -0.046287093 2.3333333
-7.0954876 0.63713151 0.23082136 16
-6.330174 1.3208598 0.13016705 0
-6.2146049 1.3479601 0.10247886 33.25
-5.828382 1.8642319 0.19556125 1.0625
-11.024867 -2.2521558 -0.034080777 0.5
-10.870742 -2.1121545 0.1509141 1
-9.7367325 -1.3550975 0.011976954 6
-9.6046839 -1.3172723 0.077855363 5.916667
-9.197298 -0.94022977 0.10976866 2.6145833
-8.7327394 -0.34272337 0.092702851 0.40000001
-8.5546541 -0.26241177 0.092273548 1
-6.2628913 1.6202033 0.041858874 58.675137
-6.2075648 1.6983441 0.15515326 60.100002
-5.6385098 2.2491038 0.048829421 0
-11.091203 -2.2257652 0.11528277 1.5
-10.905606 -2.0629506 0.07815735 2
-10.701612 -1.7746392 -0.028876137 0.5
-10.67329 -1.7625777 0.11468682 6.1666665
-10.44598 -1.5949742 0.14926071 11
-9.2874413 -0.57595754 0.081096083 2.2857144
-8.229022 0.385997 0.14023034 11.416667
-7.9702921 0.46320409 0.083693862 9
-6.3672266 1.8958443 0.067227215 13.650794
-10.772533 -1.6081237 -0.064077839 1
-9.3537588 -0.35641515 -0.043160331 2
-8.4981337 0.31999254 0.14226873 11.5
-2.4945168 6.2132034 0.061933324 1
-9.9118156 2.7426105 0.043336581 0.5
-9.9283028 2.7613482 0.043517921 1.5
-10.118526 3.3944349 0.048673291 0
5.5560617 -1.7805821 0.3945325 49.228573
4.8732548 -1.9437882 0.40294605 43.333332
5.3056984 -1.8368334 0.37898615 41.263889
5.5033388 -1.5241326 0.38500741 38.383118
4.4289093 -2.0513115 0.45647803 27.802307
4.6526146 -2.0084949 0.55727261 45
4.1057892 -2.1234622 0.43387786 35.651787
5.3523521 -1.1161361 0.41466114 20.304348
5.3905487 -0.88537741 0.41284806 61.75
3.6858797 -1.9685775 0.39050937 47.785713
5.3607674 -0.63633823 0.49013337 56.732517
2.9449315 -2.3982787 0.44094846 58
3.2713675 -2.0070119 0.42700621 41.51852
3.5213232 -1.9927264 0.40193015 41.865078
2.6736116 -2.3672619 0.3574906 48.796188
2.9715018 -2.1408587 0.41729322 37.133335
2.0816813 -2.3945599 0.39733025 50.190475
2.3905597 -2.309617 0.40041482 45.549999
1.5351369 -2.506402 0.39704585 45.700001
1.7508866 -2.4708242 0.39654633 48
5.1050878 0.45975965 0.45407549 71.280243
0.55969518 -2.963778 0.38150206 32.549999
0.89668655 -2.868083 0.36874676 43.791664
1.2482028 -2.5619874 0.40180773 42.21875
5.0340776 0.75332445 0.44949555 76.680878
0.047654271 -3.1026697 0.40595409 25.143892
0.35693109 -2.9838233 0.38743684 25.233974
0.69048101 -2.5076885 0.40153995 36.666668
3.6622081 -0.23109835 0.48944685 9
4.9623795 1.0503206 0.4471561 72.92157
-0.43453872 -3.1926503 0.34446487 35.666668
-0.26828206 -3.17907 0.42252329 46.076389
0.42910182 -2.6033878 0.41854411 24
-0.86910629 -3.3100471 0.31315324 49.928574
0.042607188 -2.5432615 0.42664117 21.714285
0.081241965 -2.5358996 0.28732404 23.666666
4.8008676 1.5166713 0.42047748 53.108227
-1.625278 -3.5068822 0.40621141 31.285715
-1.3548512 -3.4329462 0.33455232 28.825001
-1.1429377 -3.381259 0.32533726 38.226189
-0.26576602 -2.3586817 0.35497591 21.125
3.8944008 1.0396436 0.3825579 1.25
4.6024408 1.6647464 0.45201963 1
-1.9870181 -3.5915942 0.36423826 11.833334
-1.6711116 -3.496336 0.28912464 29.125
4.5693665 2.0218792 0.46734104 2.6416824
-2.489691 -3.7522664 0.39050618 6.666667
-2.2650337 -3.6944132 0.44457993 8
-0.51349473 -2.0085359 0.36212754 16.675817
0.15486741 -1.5708841 0.39519858 50.5
3.8588047 1.909758 0.42401206 2
4.4634867 2.1747742 0.36920241 2.2
4.6327772 2.4880042 0.5529561 16.625
-2.8834224 -3.8645315 0.48292693 2
-0.59921145 -1.7350918 0.38747892 10
4.0606685 2.2959075 0.42269444 2.76
4.5646296 2.8710413 0.57508415 45.473682
4.527976 3.0552683 0.4769243 56.174999
3.7563908 2.6599412 0.43097684 5.8585854
4.4352951 3.4248424 0.43816766 55.076923
4.2241292 3.5412011 0.51673841 38.681816
-4.2368455 -3.4887776 0.37764946 1
3.869365 3.4807143 0.48549679 23.850651
-4.3854761 -3.3244238 0.37951833 0.80000001
-4.3025575 -3.2289605 0.37380263 1
-2.2721763 -1.6160959 0.35237157 12.611111
3.2196405 3.2753892 0.49022594 32.799999
3.4590328 3.3505936 0.46944618 25.188143
3.6241453 3.4422507 0.38889372 20.5
-4.8051357 -3.3024907 0.30066243 11.0625
-4.362186 -3.1461062 0.2544798 1
2.7350016 3.1789937 0.44602996 30.6
3.0235004 3.2347374 0.40638494 28.863407
3.0527935 3.4933939 0.36307541 0
-5.5862846 -3.5930166 0.36414027 3.5
-4.8599706 -3.2510433 0.33312508 1
-0.012073874 1.1662397 0.40202835 68.709091
2.1309233 3.0465679 0.47765112 32.711113
2.5147862 3.1299434 0.42741713 28.961538
-5.6461382 -3.5879145 0.43792006 0.5
-0.043239832 1.4478893 0.44067386 53.299999
1.8233386 3.0007229 0.45801207 33.603703
0.51079279 2.2119565 0.40977699 3
1.0391738 2.8260961 0.42403001 51.8125
1.1746221 2.8520041 0.42639312 35.293449
-0.3964957 1.7614843 0.38707212 18.5
-0.22222233 1.7709119 0.42645392 39
-0.13924718 2.0257044 0.38239941 14.9
0.16910601 2.2878914 0.3223401 7.8205128
0.80104399 2.7730227 0.42226529 52.934731
-0.35623813 2.2748561 0.358134 17.785715
-0.085910439 2.5083914 0.43751681 25.8125
0.17793965 2.626894 0.5061146 50.090908
0.41289842 2.670176 0.42440686 46.936653
-0.75225735 2.2799127 0.39152175 35.599998
-0.4426347 2.3790939 0.53314823 30.162163
4.9102688 6.9825802 0.42661539 0
-9.0360079 -4.8583961 0.40415618 11
-2.0338411 1.4019957 0.46876493 0
-1.9136384 1.4472015 0.38642469 6.375
-1.3087497 2.15205 0.43322331 38.076923
-0.91666055 2.2458944 0.40345898 34.083332
-9.5894642 -5.0221295 0.42160365 12
-2.1508892 1.4277878 0.33042064 0
-2.22734 1.6401417 0.3421759 0
-1.695184 2.0599604 0.41801372 27.518518
-1.4553039 2.1114969 0.35381567 24.185186
-10.341879 -5.0758634 0.25405052 19.916668
-2.3859887 1.7623889 0.52271825 0
-2.1891563 2.04109 0.51577395 0
-10.398823 -4.8793855 0.25430337 20.5
-2.7599716 1.8604361 0.38647473 0
-10.411598 -4.5725532 0.24114668 19.111109
-9.7085123 -3.90274 0.27565712 12.8
-4.340929 0.65545297 0.40880665 31.5
-2.9954405 1.9032434 0.40428674 0
-9.732338 -3.7735362 0.41482037 17.666666
-9.7478132 -3.554482 0.29845062 20.435186
-5.6747456 0.035580903 0.34184417 38.25
-5.4781604 0.1997067 0.27403241 22.285715
-5.3774724 0.23205528 0.39020401 34.76923
-4.3631172 0.86739266 0.48030648 101
-3.5812945 1.5987847 0.37711093 47.416664
-5.4630556 0.46307844 0.39595005 46.357143
-4.0044847 1.5850508 0.46718359 0
-9.8619614 -3.2021413 0.3000001 20.806349
-5.5310245 0.70980972 0.40144014 76.5
-4.375309 1.5490366 0.35507703 17.285715
-4.189364 1.757244 0.34999985 8
-9.9697065 -2.925518 0.30188885 19.066668
-5.5586114 0.95721936 0.34413466 33.818184
-5.3344588 1.3459725 0.279953 3
-4.4955578 1.9872699 0.36966369 0
-4.0187178 2.3397985 0.48990172 1.2
-3.8332486 2.3709385 0.47814733 8.25
-9.9706516 -2.6558466 0.30165809 19.791666
-9.975543 -2.3502192 0.30167234 20.341269
-5.9247746 0.92914355 0.29446307 24.666666
-5.2971983 1.6765498 0.28326946 8
-4.7700219 2.008779 0.38344994 0
-9.9908504 -2.1600223 0.21097703 16.5
-6.4331064 0.83564562 0.31017616 15.25
-6.1748915 1.1377771 0.30486301 48
-6.1811123 1.2073166 0.43959868 56.714287
-5.5838213 1.5401837 0.29058975 7
-9.1823139 -0.98148203 0.26546952 2.4000001
-7.3446341 0.5887174 0.28682664 12.875
-7.0003071 0.66728598 0.32723406 16
-6.2335286 1.402936 0.35470927 39.222225
-10.997703 -2.2782936 0.22547702 1
-10.616426 -2.0168142 0.22056784 1
-10.435941 -1.9103278 0.28889757 24.766666
-9.6368103 -1.2764491 0.30592614 2.5
-9.1929674 -0.94033861 0.39063397 2.375
-8.6329641 -0.35567617 0.25670886 0
-7.7725134 0.48141778 0.2974523 12.291667
-6.2737241 1.5754904 0.44951752 45
-10.952567 -2.1572165 0.22513591 1
-10.612104 -1.7950438 0.32861924 11.983334
-10.464193 -1.5801848 0.3137978 25.5
-9.2858391 -0.57761896 0.33201814 1.875
-8.2843218 0.34851468 0.32935455 9.6111107
-6.4021006 1.9022589 0.39197698 2.25
-9.4121532 -0.3149035 0.30435067 2
-8.7831154 0.22178471 0.38228604 6.5
-8.5382099 0.28137419 0.31677136 10
5.3117232 -1.8522555 0.61970109 59.900002
5.5524483 -1.7659508 0.64249229 79.583328
4.8764601 -1.9564248 0.57781553 45.608696
5.5596251 -1.4991349 0.63044697 86.764709
4.4443951 -2.0385342 0.77270567 37.758621
4.988739 -1.4792129 0.80574089 20.642857
5.481916 -1.172562 0.60707712 73.333336
4.1388121 -2.1245923 0.73850447 39.454544
4.6002536 -1.7223083 0.76360023 12.181818
5.0803251 -1.1351746 0.79521692 16.875
5.436265 -0.95803428 0.59361011 79.466667
3.715477 -1.9722666 0.6625343 37.842106
5.0451536 -0.89860809 0.77447683 25.74074
3.2640438 -2.0312271 0.6146456 34.458332
3.4997063 -2.0076361 0.63946974 34.76923
4.9926939 -0.60570633 0.74934739 7.5999999
5.0062819 -0.46893364 0.74600047 8.3125
2.6739247 -2.3851337 0.61038822 49.653847
2.9671917 -2.1741776 0.6039145 31.833334
2.1027312 -2.4055424 0.57693928 41.022728
2.4013016 -2.3237605 0.58011848 42.200001
1.5201682 -2.5302238 0.57998002 38.666668
1.7469059 -2.4904141 0.57769638 40.346153
4.8801861 0.25176033 0.70553446 0.66666669
0.51900214 -2.9957089 0.67434186 30.727272
0.92288101 -2.8781686 0.64288092 32.5
1.2697234 -2.5842943 0.58815974 38.214287
4.9001884 0.5050258 0.70998836 5.939394
4.9557943 0.80481637 0.72503096 6.625
0.080710292 -3.1112576 0.71431106 24.347826
0.36344862 -2.8710046 0.66022485 25
0.69766188 -2.5466223 0.59218484 28
4.9143958 1.1355722 0.72819 9.8947372
-0.46386075 -3.2009773 0.51688951 37.875
-0.29222131 -3.2136841 0.75385451 35
4.8817167 1.3924172 0.73369014 17
-0.67898774 -3.2768412 0.53525674 56.857143
-0.012242317 -2.5944109 0.63716197 13
4.8356609 1.6352607 0.74006897 18.21875
-1.3472729 -3.4237185 0.58787376 35.888889
-1.1600068 -3.3976626 0.57390434 30
-0.23450875 -2.4494991 0.63147247 14.333333
-1.994962 -3.584805 0.64565372 9
-1.6569867 -3.5053539 0.6154328 22.888889
-0.40812397 -2.2644901 0.61930335 15
4.7187223 2.0249276 0.74857461 11.4375
-2.5069218 -3.7586999 0.69775772 8
-0.5512501 -1.918027 0.58583248 16.8125
0.15435898 -1.5821873 0.67802745 49
4.5577731 2.4039898 0.75690722 5.507843
-0.60624671 -1.7205433 0.56612206 10.428572
4.39814 2.6625905 0.75932747 4.8000002
4.2059774 2.7690153 0.74273109 8.7058821
4.1059685 2.9576402 0.75243634 16.758621
4.1739655 3.52914 0.83997297 34.57143
4.4331255 3.5007362 0.61767405 67.090912
-4.2690454 -3.4589977 0.5404883 1
3.8866372 3.4785571 0.79609394 27.299999
-4.28016 -3.2774711 0.5342555 0.9375
3.4675713 3.3418622 0.72521579 22.625
-4.7952976 -3.3297548 0.56743336 18.5
2.5089819 3.1085124 0.83502972 27.391304
2.733161 3.1735444 0.62252641 23.9
3.0379062 3.2465625 0.66380012 20.75
-5.5597215 -3.6344066 0.62522805 4
-4.8649435 -3.2688203 0.56962156 1
2.1389658 3.0312629 0.77991742 27.282608
2.5128531 3.125813 0.59611541 28.461538
1.806648 2.9804678 0.74444515 34.050262
0.49351054 2.2321937 0.5833624 2
1.027765 2.803668 0.69088042 50
1.1559906 2.8310537 0.69466841 33.5
-0.23751533 1.7851592 0.61060172 41.75
-0.17922747 2.0396876 0.64599794 30.952381
0.23310518 2.2959452 0.63374358 18.799999
0.8075096 2.7555194 0.69009 48.943398
-0.083966374 2.5294399 0.73259312 38.935482
0.21575367 2.6254315 0.71253479 21
0.3986187 2.640914 0.69558203 35.875
-9.0301361 -4.9760537 0.61183566 16.5
-0.77749753 2.2537866 0.80109167 20.571428
-0.72861075 2.2719388 0.55533075 7.1111112
-0.41292155 2.3458946 0.74898344 28.15
-9.0841293 -4.8651905 0.61207831 10.5
-1.9620876 1.4413161 0.67202312 7
-0.9237175 2.2490973 0.57932931 21.799999
-9.6022739 -5.0104842 0.63756394 9
-2.1946177 1.4216511 0.71001625 0
-1.7641377 2.0458746 0.68343729 32
-1.4495873 2.092968 0.63940126 25.533333
-10.180239 -5.1342268 0.5524832 5.833333
-1.9919157 1.9896616 0.71454579 18.5
-10.614987 -5.1991248 0.45276409 1
-11.098514 -5.3230152 0.46792701 1
-10.960687 -5.0771289 0.46164206 1
-10.846496 -4.8738818 0.45649746 1
-9.8566236 -4.1875777 0.63539565 0
-9.7194929 -3.9521298 0.62573475 28.666666
-10.738207 -4.6502233 0.45142129 1
-9.7292538 -3.801312 0.62413651 17
-9.7598228 -3.5458679 0.62232977 20.875
-5.6762304 0.0095728636 0.57081848 37
-5.3729348 0.090086877 0.54874223 37.666668
-3.5894132 1.6001745 0.64919829 39.875
-11.720775 -5.1490159 0.48453289 1
-4.1235847 1.5461969 0.70740509 4
-9.8699722 -3.2121587 0.6237421 19.5
-4.859365 1.2623885 0.52265292 0
-4.4549942 1.6009386 0.74645156 5.3333335
-9.969779 -2.9412279 0.62579739 17.200001
-5.5794101 1.0664651 0.57227695 21.75
-3.9324746 2.3696404 0.71864748 0
-9.9773159 -2.6632757 0.62380052 17.625
-9.9774914 -2.3638735 0.62164277 18.4
-9.988801 -2.1829305 0.62107676 19
-6.4879518 0.80772114 0.63578093 13.75
-6.2182994 1.0927422 0.61966097 5.5999999
-7.2575006 0.60881197 0.69046545 11.333334
-6.2274113 1.3326373 0.62381649 8
-10.84486 -2.1747499 0.44303858 1
-10.605413 -2.1930418 0.65119034 0
-9.6892357 -1.2891352 0.6031009 1.5
-9.1812363 -0.9613415 0.57762605 1.7777778
-7.6558342 0.50563222 0.71893209 10
-6.2816081 1.5972934 0.63250637 13.444445
-11.084193 -2.2109499 0.67467088 0
-10.916652 -2.1059022 0.66599911 0
-10.652475 -1.8002146 0.65189397 10.714286
-10.521448 -1.5691146 0.64477569 31
-9.2812128 -0.57900524 0.58291912 1.6666667
-6.390852 1.8928744 0.64652699 1.3636364
-9.3573389 -0.32417166 0.58732343 1.5
5.2234588 -1.67725 0.860645 20.666666
5.4239984 -1.5875267 0.88691723 17.799999
4.1578956 -2.127984 1.0657651 20.444445
3.7427807 -1.9888865 0.95905858 28.095238
3.0135725 -2.3798203 0.92021465 39
3.2556622 -2.0330124 0.88109422 34.739132
3.4967225 -2.0144467 0.91851526 27.714285
2.639915 -2.3714581 0.87203366 35.25
2.9612966 -2.1492405 0.86151195 26.125
2.0920041 -2.4043016 0.83110732 37.138393
2.3891687 -2.3274374 0.83525795 35.8125
5.1198807 0.33477715 1.067884 27.565218
1.5722029 -2.5048723 0.83349138 34.571426
1.7642775 -2.4708538 0.83035326 35.416664
5.0637093 0.54021567 1.0528175 77.777779
0.62083983 -2.968864 0.9704839 23.375
0.90461487 -2.8698239 0.93334997 26.793104
1.2945039 -2.5843315 0.85199976 35.07143
5.012001 0.75744116 1.0429435 93.730766
0.33856249 -2.9225507 0.97687548 18.23077
4.9238386 1.1231105 1.0341167 92.46875
-0.50196135 -3.2212477 0.77010989 29.857143
0.65088928 -2.5184083 0.8553111 26.142857
0.65536445 -2.3670492 0.81691587 33.333332
4.7826662 1.3266677 1.0083902 63.777779
-0.74546075 -3.3080153 0.80264139 42.214287
-0.053279877 -2.6555715 0.94752181 10.958334
4.8189478 1.6334012 1.0436985 51.296295
-1.3232951 -3.4553266 0.87583059 38.642857
-0.26117635 -2.4250679 0.918549 12
-1.9855161 -3.6282024 0.96721864 6
-1.700897 -3.5536699 0.92717165 24.444445
-0.42997766 -2.2613006 0.90585697 8.5
4.7303038 2.0283275 1.0632585 47.64706
4.6765714 2.249155 1.0776438 48
-0.54452658 -1.9598478 0.86034805 15.333333
4.6313705 2.4792094 1.1000639 47.090908
-0.61453199 -1.6807047 0.81751907 15.5
-4.2255116 -3.4821219 0.82323974 1
3.5788298 3.3526044 1.0463518 18.181818
-4.2716575 -3.2739954 0.81475782 1
3.0650225 3.23036 0.93716478 20.5
3.3663692 3.2964859 0.99857545 21.666666
-4.8210125 -3.3346558 0.87068981 8.5
2.7556868 3.160347 0.87742049 20.25
-4.8658309 -3.2567987 0.87068397 1
-5.6458936 -3.6059413 0.96595865 1.2
-2.1291301 1.4106679 1.0127026 0
-1.9158747 1.4136946 0.95955682 11
-1.0774999 2.1937966 0.85355043 22.333334
-0.94126129 2.2267404 0.83015496 22.9
-1.8114421 2.0322223 0.99656481 34.900002
-1.4311225 2.0906596 0.91672939 24.85
-10.996799 -5.3330193 0.70519674 1
-2.5717936 1.8033726 0.79530883 0
-11.056141 -5.2813063 0.70697892 1
-10.979214 -5.1164885 0.70079261 1
-10.737949 -4.8300323 0.68529963 0.5
-9.893487 -4.041214 0.9202857 1
-2.9798708 1.8850772 0.86801285 0
-10.781958 -4.6976376 0.68526363 0.5
-5.634212 -0.0032149553 0.85897768 14
-5.3727899 0.20894051 0.82927752 21.846153
-3.5956264 1.5821322 0.9552173 35.375
-5.3968134 0.39457107 0.83271885 21
-9.8935184 -3.2398801 0.90402591 16.5
-5.4704099 0.60991782 0.84291166 33.200001
-9.9658556 -2.9380393 0.90393549 16.200001
-5.5792465 0.9191156 0.85916376 43.111111
-9.9788065 -2.6630487 0.90073729 17
-9.9771967 -2.3656812 0.89669293 17
8.3383875 13.390298 1.055334 1
-9.9682875 -2.2154021 0.8942799 17
-6.1698246 1.1580672 0.93069965 53.555557
-10.45902 -2.2011728 0.92919934 1
-6.235177 1.3699404 0.94232124 45.5
-9.6734734 -1.3240818 0.86553967 2
-9.1873665 -0.96133626 0.8286044 2.1111112
-7.8989878 0.43969631 0.73633856 10
-6.2884784 1.6004721 0.95377564 42.777779
-10.514858 -1.6342403 0.92837298 29
-9.3003912 -0.56104696 0.83610386 2.125
-8.4931841 0.28064346 0.77903205 9
-8.2231779 0.3532759 0.75961298 9.333333
-6.3792377 1.8846703 0.97170329 5.4000001
-9.3857565 -0.22858554 0.84275365 3.6666667
-8.7211332 0.2204102 0.79546463 9
-9.5927896 -0.01187712 0.85848939 7
-9.1016827 0.11815229 0.82294106 8.333333
5.5511603 -1.6583377 1.3125241 45
4.4325509 -2.0592566 1.1110498 34.73077
4.7165575 -1.913669 1.1502421 13.431034
4.992362 -1.524078 1.1607059 18
5.2161479 -1.1058053 1.1699052 19.041666
5.3611345 -0.89780796 1.1883153 13
5.3508511 -0.64646649 1.1671361 55.720001
0.081052303 -3.0981336 1.0404201 19.5
-0.5067513 -3.2348881 1.1318361 18.888889
-0.27722299 -3.2067142 1.1002111 20.90909
-0.67140722 -3.2904434 1.1639326 35.857143
-1.2029648 -3.4249644 1.2635205 34
4.5063267 2.9657097 1.1508651 46.4375
4.4362783 3.3708124 1.2109654 62.259258
4.2140646 3.5107851 1.194846 27.888889
-5.319335 -4.475698 0.98692012 2.5
3.9037993 3.4487662 1.1244073 23.578947
-9.667347 -5.2324643 0.93662626 13.333333
-10.449213 -5.4187136 0.99272507 10.6
-2.5059798 1.7769011 1.1367352 0
-11.032358 -5.3998408 1.0303266 1
-2.7181592 1.804742 1.1916788 0
-10.879654 -5.068553 1.0114294 1
-10.692975 -4.7839375 0.99175185 1
-3.0102324 1.8926568 1.2715508 0
-10.792549 -4.6767693 0.9957906 1
-10.396077 -3.8771701 0.9509843 14.9
-12.003304 -5.0808349 1.0868505 1
-4.382638 1.6356701 1.0916764 0
-3.9982243 2.3269041 1.0645932 3.5999999
-3.8686314 2.3574727 1.0453418 12
-5.3999438 1.2973351 1.2545974 1
8.3815975 13.462617 1.4056664 1
-10.997866 -2.2781334 0.96856958 1
-10.90078 -2.0410151 0.95940226 1
5.6113648 -1.7549115 1.338667 32
-1.3791401 -3.4508204 1.2943655 16.6
-2.0213559 -3.6293297 1.4305372 11
-1.6890316 -3.5445242 1.3606777 16.111111
-9.1943531 -5.4707298 1.4146408 2
-9.0949621 -5.4608593 1.4042979 4
-3.6645451 1.5502353 1.4102539 22
-9.9801674 -3.1646318 1.4012471 23.200001
-9.9827042 -2.8196459 1.3918887 22
-3.8497696 2.3438501 1.5196245 10.25
-9.9925337 -2.3970957 1.38255 21.333334
-5.5408106 1.4668632 1.2841876 6.5
-6.799943 0.69876933 1.4856558 15
-6.477788 0.7870146 1.4307863 16
-6.1821165 1.0760438 1.3847249 45.214287
-6.2443604 1.3416265 1.4019175 15.5
-10.429446 -1.9158036 1.4219769 22.333332
-6.2505307 1.5768622 1.4101861 16.833334
-10.434896 -1.5406905 1.4168926 26.625
-10.015079 -1.1218166 1.3646216 21.142857
-6.4328308 1.8151993 1.4499575 1.75
-10.010656 -0.96054196 1.3626877 21
-6.6300964 1.9851412 1.490401 1
-10.014658 -0.67875385 1.3614749 21.153847
-10.017775 -0.38008296 1.3607359 21.5
-6.096612 3.3102708 1.4756274 4.3333335
-6.1677666 3.7053881 1.5167693 5.5
-2.9072843 -3.891211 1.6326629 1
-5.5822182 -4.5943131 1.5334414 3.5
-5.960609 -4.6917748 1.5960424 2
-5.7081828 -4.6252847 1.5540823 4
-6.3672624 -4.7985106 1.6639074 3.75
-6.5140548 -4.6820145 1.6742095 2.5
-9.8090134 -5.6366277 1.4842669 3.5
-9.4473982 -5.5393405 1.4432942 2
-10.016073 -5.5199823 1.4991542 14.2
-10.305768 -5.491601 1.5269895 8
-10.593257 -5.3776088 1.5509151 7.75
-10.736601 -5.188952 1.5570638 1
-10.653869 -4.8471503 1.5337716 1
-10.666064 -4.6103969 1.5253301 1
-10.672029 -4.4097352 1.5180837 1
-10.63541 -4.2251463 1.507236 1
-10.649089 -4.1126132 1.5045754 1
-4.2281432 1.5581439 1.5540714 0
-10.442459 -3.7044368 1.4683391 11.125
-10.439278 -3.4970207 1.4612379 15
-4.5165434 1.4951987 1.6242765 6
-4.4181657 1.6357654 1.606985 1
-4.0091743 2.3245258 1.5568554 1
-7.4349251 0.52815354 1.5944376 12.5
-7.2197037 0.58793157 1.5575104 14
-7.0021486 0.64320052 1.5202082 13
-7.9172726 0.39900044 1.6774909 11
-7.6694336 0.46685985 1.6347872 12
-8.2431345 0.31244504 1.733779 10.666667
-4.5580864 -3.7625909 1.9355446 20.833334
-4.672637 -3.6507611 1.9434228 13.75
-7.0850821 -4.9689221 1.7829713 1
-6.869523 -4.9317098 1.748385 3
-7.4621048 -5.0157976 1.8422033 11.25
-5.1130028 -2.9163241 1.9458703 4.6666665
-7.7827759 -5.061388 1.893405 13.333333
-5.2914238 -2.9352736 1.9889919 7.5
-8.1307516 -4.6127777 1.9088269 10.875
-5.5723681 -2.4146667 2.0005674 11
-5.4018364 -2.3856053 1.9571151 4.5
-8.3333187 -4.590414 1.9380534 10
4.9330807 6.9882126 2.1067863 1.5
-5.7933879 -1.3628577 1.9737209 3
6.4871507 9.8956013 2.1099532 1
-5.6117415 0.84802079 1.8833838 58
8.3340893 13.389134 2.0003374 1
-5.8401628 1.7794193 1.9777265 0
-8.5213518 0.23605353 1.7819148 15
-5.5958242 2.7469535 1.9860493 0
-9.058938 0.093250602 1.875185 9.5
-5.3125844 3.0511851 1.9461019 3.1111112
-5.2223301 3.2665029 1.94728 2.9749999
-9.6340513 -0.060603082 1.9752462 12
-9.4080658 -0.049480259 1.9359992 17
-2.7875595 6.4870362 2.0252092 2
-5.2632246 -4.4181228 2.1800697 15
-4.9205217 -3.6914659 2.0022154 13.5
-5.0230527 -3.7117677 2.0271244 7
-8.2015905 -5.2240887 1.9694142 19
-8.6678171 -5.3117509 2.0463367 14.333333
-8.3113403 -5.0855398 1.9742618 29
-8.9846735 -5.3982267 2.1010227 16
-9.4646368 -5.5253887 2.1837518 9
-8.7193899 -4.7020254 2.0058663 8
-6.0408316 -0.8440448 2.010916 3
-10.280126 -3.7819457 2.1941671 36
-10.176117 -3.5165634 2.1631014 34.285713
-10.117026 -3.2313595 2.1390545 33
-10.229429 -2.9580631 2.1451986 33.099998
-6.3252125 0.23479751 2.0624564 10
-6.2724309 0.53467071 2.0503333 19.111111
-10.20497 -2.6874585 2.1295993 40
-6.273735 0.77244782 2.0535231 25.799999
-10.066643 -2.3951836 2.0952003 37
-10.037784 -2.1130118 2.080442 34.333332
-6.1766081 1.0745218 2.0354733 23.666666
-10.045801 -1.8436295 2.0736699 33.666668
-6.2420025 1.3063083 2.0595887 4
-9.8579693 -1.5031666 2.0324934 33.666668
-9.672389 -1.2582798 1.9951909 34.666668
-6.2757587 1.5805948 2.0796032 3.6923077
-9.6733265 -0.96941507 1.9901475 35.900002
-9.6821928 -0.70482862 1.9878683 36.5
-9.656949 -0.64342439 1.9828001 12
-10.081675 -0.50505745 2.0550876 35.5
-10.083412 -0.38545334 2.0545535 36
-9.982482 -0.19877732 2.0361602 20.5
-10.187486 2.7010126 2.1282897 1
-6.3370161 -4.3973398 2.4058421 17
-6.9692249 -3.4141641 2.431093 10
-6.7248783 -2.6167998 2.2962716 6.5
-10.234703 -5.4274983 2.2938683 44
-10.245372 -5.182312 2.2776423 36.888889
-10.046716 -4.7933226 2.2191448 31
-10.264453 -4.6264052 2.2425036 35.900002
-10.253852 -4.3593903 2.223681 33
-10.273765 -4.0826302 2.2103112 34.81818
-7.7969103 -1.2102898 2.473443 5
-7.5269737 -0.96474719 2.3952997 11.375
-7.211463 0.025930196 2.2929389 4
-7.5167465 0.33547103 2.3715546 23
-7.8169498 0.43345979 2.4498861 9.5
-7.7669649 2.1517363 2.4900973 0
-12.061133 2.8124185 2.4535575 2
-12.277755 2.9230318 2.4950068 2
-6.859189 -4.8277569 2.5778339 15.333333
-7.4050102 -4.7861395 2.6921334 12.090909
-6.8563347 -4.2741733 2.5046158 12
-7.5901098 -4.4510837 2.6915247 10.142858
-7.8384762 -4.037693 2.7008574 10.25
-7.9877768 -3.7560625 2.7059612 11.25
-8.2041311 -3.3134942 2.7148671 9.875
-8.3442163 -2.9992242 2.7216899 10.333333
-8.4229164 -2.8060603 2.725415 10.5
-8.4987974 -2.5639973 2.7264025 9.833333
-8.6352968 -2.1721668 2.7346673 10.111111
-8.7272043 -1.8801705 2.7409415 11
-8.7654505 -1.6389033 2.7387435 11.222222
-8.7134342 -0.021693587 2.6822848 18
-8.0517082 0.37493736 2.5104594 8
-8.0972261 2.762095 2.6122291 0
-12.658279 3.8565469 2.6017165 2
-8.9750319 -1.0395627 2.7686906 9.75
-9.0143843 -0.81927609 2.77265 11.125
-9.0586414 -0.44366956 2.7763481 11.727273
-9.0529213 -0.029264331 2.7704802 12.472222
-9.4332361 2.4851692 2.9338484 0
-8.9581814 3.0213361 2.8475325 0
-5.0034351 -1.787473 -1.0401326 2.5
-9.706336 -3.436718 -1.0832858 1
-6.6223402 -1.1790984 -1.015291 0
-6.6641808 -0.93714565 -1.0126748 0
-8.2462473 -1.3748658 -1.0284151 0
-6.7033176 -0.53343683 -1.0063649 0
-10.062374 -1.9695809 -1.0659949 13
-10.346938 -1.9246745 -1.2645001 1
-10.058011 -1.7906182 -1.1455215 5.0833335
-9.763114 -1.4142308 -1.0245548 5
-6.7614422 -0.20584804 -1.0063231 1.5
-9.7066231 -1.2612002 -1.0158415 1
2.8701708 -2.381001 -0.89002609 89.25
2.9901304 -2.3573217 -0.89861429 87
3.6147592 -1.9526002 -0.89752978 17.666666
3.6356049 -1.9325688 -0.89685804 17.5
4.83675 -1.5243363 -0.75951087 6.5
5.031785 -1.4817057 -0.78829587 1
2.2305503 -2.2821734 -0.80275071 42.025002
2.6003859 -2.2097886 -0.81501561 24.533333
2.9690509 -1.9475186 -0.79216188 41.53125
3.2655034 -1.7922723 -0.80042017 31.222221
3.7741866 -1.7697017 -0.88856238 14.714286
4.0341864 -1.4226768 -0.87492597 13.205129
1.8628817 -2.3306234 -0.79693276 57.451614
2.0125473 -2.2660196 -0.78432035 41
3.0248494 -1.8193707 -0.76812619 20
4.1819649 -1.2430243 -0.87652725 9
-1.2799804 -3.4517946 -0.95921624 40
-0.68765211 -3.1506228 -0.84290177 5
-0.44606292 -3.189826 -0.82703471 11.5
0.6367563 -2.6252244 -0.90589213 52.357143
1.3286753 -2.3070493 -0.78475821 14.972222
3.9002316 -1.0210156 -0.77437913 1
4.1770668 -0.88631958 -0.82032037 0.33333334
-1.9918954 -3.5960779 -0.82669997 8.666667
-1.6213899 -3.4829469 -0.8517738 16.050001
-1.3461268 -3.4264665 -0.96242929 38.599998
-0.78701806 -2.9529927 -0.81810486 8.2142859
0.1926192 -2.5200996 -0.91719788 27.67742
0.42408288 -2.5599217 -0.90461516 38.833332
3.9773529 -0.79958719 -0.7587775 1
4.5357409 -0.36344635 -0.85213894 5.4545455
-2.9220479 -3.8513775 -0.77758449 11.5
-0.072712064 -2.2572622 -0.88083255 14.952381
1.7972543 -1.393476 -0.90244788 21.38983
2.1874855 -1.2777166 -0.8949846 20.120689
2.5390782 -1.086437 -0.88582039 18.896551
2.8542972 -0.82271367 -0.87750334 17.080645
4.4228477 -0.056602478 -0.79674178 0
4.6079082 -0.15943056 -0.85466343 13.625
-2.2716439 -3.1456082 -0.80088902 43.142857
-2.1374543 -3.0111818 -0.9978478 2
-0.38332987 -2.2386258 -0.92104036 18.68421
1.1087651 -1.3990204 -0.9097892 18.75
1.3645496 -1.4218693 -0.90735269 18.323076
3.1071103 -0.50594562 -0.86988848 14.982456
4.6229491 0.13065004 -0.84187484 21.631578
-5.1222935 -4.3910389 -0.8748318 4.3333335
-4.4506674 -3.9653087 -0.78682405 7
-3.8747466 -3.5852189 -0.84344369 14.25
-2.3521557 -2.8178058 -0.84842151 28.868317
-0.5658257 -2.0015566 -0.89575869 17.555555
0.83881456 -1.3192797 -0.90812123 19.333334
4.6192384 0.55594438 -0.82803959 9.039216
-4.1104364 -3.4815474 -0.85868639 23.738094
-3.7673628 -3.385314 -1.0024085 1
-2.6693318 -2.7613194 -0.80405045 19
-0.61208177 -1.6566441 -0.82814133 31.299999
0.58059639 -1.2158113 -0.90723938 17.285715
3.3654246 0.15446857 -0.85222578 15.7825
-4.0616169 -3.2665539 -0.93058687 17.041666
-3.3547814 -2.8536661 -0.89803642 0
-2.5521362 -2.4925196 -0.98842192 1.2727273
-1.1296108 -1.7651091 -0.95395827 3.4444444
-0.5645659 -1.5714571 -0.80091119 36
0.35859978 -1.0856881 -0.90851498 18.454546
3.4053769 0.48753667 -0.84534067 15.767442
4.4578333 0.91605258 -0.78509331 1.6818182
-2.6828597 -2.2892363 -0.98387539 1
-2.1513822 -1.7881441 -0.83637726 15.625
-1.357687 -1.4734695 -0.95017058 3.34375
0.023241997 -0.79912573 -0.90548021 17.134615
3.3786151 0.83859932 -0.83763844 16.36508
4.2881513 1.1999087 -0.74849778 1
4.4231153 1.3271972 -0.79274499 1
-2.4840312 -1.8843765 -0.90332109 16
-2.2907197 -1.6790731 -0.8475228 1
-1.5071678 -1.2343781 -0.94572592 1.5714285
-0.14041567 -0.60246187 -0.90249795 16.75
-0.21922863 -0.48871583 -0.90266418 13
3.2714844 1.2332747 -0.82974327 16.295082
4.1002011 1.7049081 -0.73782921 10
4.1791277 1.738801 -0.76189685 11.578947
-0.39187551 -0.11746025 -0.89466852 16.555555
3.0970514 1.5883148 -0.82628626 15.135593
3.9755569 1.9708452 -0.73714727 1
4.1793075 2.0646584 -0.79993004 10.555555
-1.7736814 -0.62604588 -0.93387109 4
-0.423913 -0.0021106601 -0.89086962 17.26923
-4.5895586 -1.6003599 -0.96865356 0.83333331
-4.0858259 -1.3968475 -0.88297856 1
-3.2256835 -1.0170939 -0.95679593 1
-1.8467829 -0.37520522 -0.92993486 4
-0.48200536 0.29318514 -0.88587147 17.733334
2.8240688 1.9077785 -0.8167122 13.46875
3.9483945 2.4364638 -0.7991119 9.0285711
-5.0854912 -1.5232551 -0.84131181 7.5384617
-4.6538639 -1.4347601 -0.96840072 1
-3.3087142 -0.66143042 -0.94964731 1
-1.9172704 0.03604275 -0.92089033 3.9142857
-0.49184263 0.68868309 -0.87945497 13.805555
2.5893574 2.1132464 -0.81557685 14.620689
3.8040495 2.6275074 -0.79954016 8.5
-7.646512 -2.6266713 -1.0116007 0
-6.99263 -2.3799427 -0.80575609 11.5
-6.4617958 -1.9438677 -0.86311114 27.583334
-5.7104931 -1.5333533 -0.77021509 2
-5.1195164 -1.3444498 -0.83735621 8.5
-4.6869507 -1.2450707 -0.96312475 1
-3.3403127 -0.44591147 -0.94396544 1
-1.942008 0.29552111 -0.91634715 2.75
-0.45242667 0.95629263 -0.87125456 17.166666
2.2945013 2.2941365 -0.81895691 12.610963
-9.7596464 -3.3943942 -0.80659914 26.75
-5.1660967 -1.1579535 -0.83539569 17.214285
-4.7535095 -0.89904302 -0.95670688 1
-3.3604958 -0.22333711 -0.93821293 1
-1.9349272 0.52214813 -0.90977395 3.0666666
-0.36868167 1.2023966 -0.86201948 17.894737
-0.20077097 1.5096508 -0.84325331 28.4375
1.7995876 2.4568162 -0.82001418 12.625
-7.1274385 -1.726088 -0.84628958 23.270706
-5.6522169 -1.0092268 -0.88951474 0
-4.7960567 -0.47516352 -0.9468627 1
-3.3826854 0.20467743 -0.92902917 1
-1.8989451 0.89079666 -0.90060842 3
-0.090297222 1.6980031 -0.84506148 19.574469
0.16848814 1.9720869 -0.8354004 19.851852
1.6351054 2.4812326 -0.82215786 17.049999
-6.4708462 -1.220655 -0.99803758 0
-4.8123245 -0.20763624 -0.94111806 1
-3.3733499 0.47824997 -0.92204869 1
-1.8554769 1.1304948 -0.89465886 3
0.41095293 2.1695633 -0.83304375 16.228571
2.4524348 3.3263781 -0.74317503 1
-4.8130035 0.014228642 -0.93594611 1
-3.3545153 0.71536225 -0.91683364 1
-1.7367771 1.5251715 -0.88480139 1.95
-8.013154 -1.1999533 -0.99908352 0.14285715
-4.7985907 0.40960294 -0.92726821 1.1764706
-4.3702707 0.404174 -0.86079133 27
-3.2991087 1.0663025 -0.90755832 1
-1.5541053 1.8809137 -0.86628276 6.5384617
-10.207228 -2.0477221 -0.80024201 16
-10.092825 -2.0017776 -0.93053198 14
-9.7316217 -1.6754687 -0.89399809 75
-9.4214573 -1.5710125 -0.93201697 29
-7.9088068 -0.98449272 -0.98240304 0.25
-6.022706 -0.023421645 -0.83533609 9.5
-5.5763788 0.081356883 -0.85168308 11
-5.2949648 0.25917691 -0.8135252 19.363636
-4.8186131 0.58145875 -0.83868909 9.3125
-4.1224356 0.97918314 -0.81982094 1
-3.2510808 1.3137972 -0.90226841 1
-1.3308034 2.1538248 -0.84213352 21
-10.140737 -1.8195498 -0.86036456 19.25
-9.1327744 -1.0947945 -0.83362812 3.6666667
-8.3253889 -0.76455063 -0.82089347 1.875
-7.9741583 -0.63617951 -0.91240829 2.7222223
-7.6534719 -0.46967679 -0.9437589 0
-7.0767221 -0.31374562 -0.81761444 2
-6.9004831 -0.20674658 -0.8587634 36
-4.8916693 0.8516978 -0.75781024 10.75
-4.7457285 0.87995154 -0.91620088 1.1578947
-3.5132525 1.650631 -0.7357778 43.333332
-3.2070038 1.5354896 -0.89979023 1.1764706
-10.270851 -1.5061781 -0.93301129 34
-9.1317329 -1.011919 -0.91576618 2.5833333
-8.7435341 -0.6694116 -0.7944715 23.6
-8.6232224 -0.66426164 -0.90417999 6.5
-8.0128393 -0.4773621 -0.98209572 1
-7.9627008 -0.43938333 -0.83932 14
-5.8681822 0.78689098 -0.73733813 43.642857
-4.9626532 1.0258975 -0.76660728 18.5
-4.6858969 1.2585133 -0.90856159 1.0769231
-3.9726775 1.4887965 -0.80226868 0.83333337
-3.6654432 1.6346707 -0.75850588 11.125
-5.5079279 1.2491755 -0.83600187 11
-4.9756107 1.26261 -0.76927239 19.09091
-4.652071 1.4288802 -0.90524256 1
-6.9954681 0.58606756 -0.73698181 34.200001
-6.1108665 1.1179193 -0.76245022 39.75
-5.9963026 1.2693068 -0.89760298 17
-6.1782475 1.3671217 -0.92098171 34
-2.1782072 5.0072389 -0.8093487 0
-3.0395358 6.0156202 -0.80739647 1.5
4.5985155 -2.0163741 -0.60252619 19.4
4.4408798 -2.0298083 -0.67230648 9.575758
4.5679021 -1.7885754 -0.57486302 0.5
2.7778614 -2.42184 -0.62838364 54.666668
2.9962609 -2.3419933 -0.63184422 43.5
3.6893384 -1.9474304 -0.64160961 0.33333334
4.257021 -1.7236426 -0.69030374 6
4.5735798 -1.5954821 -0.72424191 15.882353
2.2602892 -2.3365953 -0.57781273 44.76923
2.6197858 -2.2762458 -0.58861238 37.705883
3.0243652 -2.0161588 -0.57526994 42.34375
3.3508933 -1.8810158 -0.58822238 43.65625
3.6919041 -1.6687236 -0.59903085 0.14285715
4.390914 -1.4836366 -0.68028647 1
1.0788071 -2.8236306 -0.58662522 35.125
1.0279262 -2.6083424 -0.62034386 47.958332
1.4294964 -2.4580715 -0.58292168 47.325001
1.7092153 -2.4115083 -0.57445174 45.222221
1.8910522 -2.4043818 -0.57702416 47.677418
-1.1020894 -3.3742115 -0.64803815 27.75
-0.82820082 -3.2903349 -0.61717099 26.642857
-0.52042103 -3.2212923 -0.58704144 23.26923
0.65653831 -2.6484997 -0.64318025 38.875
4.0299602 -0.82993239 -0.54375774 0
-2.4858553 -3.7334733 -0.57064414 6.9166665
-1.9068737 -3.5652885 -0.60982412 10.7
-1.5987415 -3.4923925 -0.58041638 15.285714
-1.3049846 -3.4156473 -0.66930568 21.473213
-0.49284697 -2.7766256 -0.75594443 5.5
-0.35625648 -2.7487552 -0.73740703 10.5
1.1124135 -2.0701528 -0.61353731 20.615385
3.8525314 -0.83769256 -0.62477702 1.4
4.5962386 -0.42592353 -0.61307502 11.0625
4.7537527 -0.38167101 -0.64022696 12.666667
-2.9020193 -3.8171382 -0.62064767 12.716667
-0.042261362 -2.3545022 -0.63548583 23.5
0.53994828 -2.2014635 -0.56027138 42.25
-2.340112 -3.1268766 -0.60285264 41.875
-0.32768154 -2.2789886 -0.65039617 18.875
0.43343115 -1.9562414 -0.5202415 45.413792
0.88086534 -1.7562149 -0.64595598 10
3.99721 -0.10236347 -0.68406856 1
-5.044179 -4.3612113 -0.60378969 4
-4.5105114 -4.056941 -0.5561676 6.375
-4.477231 -3.8738241 -0.67526078 0
-4.262558 -3.7261696 -0.65007138 0.25
-2.4112387 -2.8516824 -0.5851081 37.407894
-0.5316577 -1.9340925 -0.61530924 21.294117
4.4697657 0.56856763 -0.54812527 14.48
-4.2853413 -3.5757375 -0.67292881 0.15416667
-2.7288287 -2.7815619 -0.5545705 22.666666
-2.6472375 -2.7618628 -0.61600518 14.5
-0.59870434 -1.6703742 -0.58193338 19.333334
4.1181746 0.50387222 -0.68775201 0
4.5285816 0.75241488 -0.55927217 5.5
4.704999 0.80966431 -0.59487355 9
-4.2950716 -3.4086096 -0.5504145 0.25
-4.1958513 -3.1709206 -0.59056699 15.416667
-3.3502266 -2.7792766 -0.56541985 1.7
3.5857794 0.68395102 -0.53719735 1.5
3.9119616 0.6700182 -0.62974864 0.5
4.2596769 0.8509897 -0.7287786 0
-3.4524543 -2.6344616 -0.52209044 3
3.8995826 1.0509837 -0.63440168 18.222221
4.0680466 1.2015927 -0.68947011 7.4285712
-2.5673306 -1.9289572 -0.70996869 12.333333
-2.0627079 -1.6255014 -0.55727571 11.971429
3.5103922 1.205662 -0.53758281 1.3333334
4.1311064 1.4765676 -0.61140138 23.73077
4.7582073 1.6622584 -0.4796789 7.5
4.7721586 1.8085194 -0.48821291 31.75
3.7788072 1.9575016 -0.68767154 14.833333
-5.024436 -1.8105862 -0.71196598 60
-4.5924292 -1.5788007 -0.65831381 0
-4.1130543 -1.5085752 -0.52099228 27.25
3.7921474 2.5790291 -0.54574513 21
4.525177 2.8861685 -0.61217469 11.026786
-0.085685611 0.95807993 -0.70449972 55.400002
3.7589436 2.6752415 -0.55302525 15.111111
4.3109832 3.0568604 -0.51746702 1.5833333
4.4898157 3.0241838 -0.70701629 20.799999
-6.4535809 -1.9628401 -0.60863721 27.470835
-5.3615303 -1.429755 -0.54402924 21
0.15585649 1.2363849 -0.63955241 66.321426
1.1090955 1.7967274 -0.53620541 76.626503
1.3664 1.8309717 -0.52604377 71.142365
4.1021128 3.2232707 -0.61978608 5.2023811
-9.7469816 -3.4021804 -0.66667092 24.583332
-9.7384415 -3.3631291 -0.6650241 25.666666
-7.0910053 -1.8765213 -0.53501588 2
-5.3862629 -1.2501321 -0.54072499 24.692308
-5.1903839 -1.0340536 -0.60602331 73.166664
0.34496355 1.6522102 -0.67330968 100
0.83528578 1.8091397 -0.58942348 55.95652
-7.1646376 -1.7587633 -0.55758482 30.726665
-0.19800925 1.7207348 -0.51296133 36
0.078842402 1.8339198 -0.46918008 73
1.8174056 2.7837315 -0.55642819 45.53846
2.4573793 3.0481384 -0.56608105 19.605556
1.5222002 2.8321786 -0.56280965 71
1.6247655 2.7618051 -0.54502988 71.454544
-0.34791207 2.2130923 -0.6264087 0.10526316
-0.0093210936 2.2677765 -0.5694015 1.2121212
-7.3142052 -0.86995596 -0.68385994 1
-10.192807 -2.03107 -0.68223941 16.444445
-10.148588 -1.8886871 -0.72322744 9
-9.5178747 -1.7114506 -0.64768481 23.833332
-9.4057741 -1.6490748 -0.67226046 13
-7.3629169 -0.68189913 -0.56180912 13.531746
-6.0012522 -0.02369386 -0.56317705 6.5
-5.6573353 0.077151477 -0.62498665 43.616669
-5.282465 0.31309557 -0.60996485 34.958332
-4.8197622 0.48667473 -0.58176529 27.75
-4.3295946 0.70552826 -0.60929817 6.25
-1.481272 2.1081138 -0.60598409 26.166666
-10.284327 -1.7985899 -0.55436641 31
-10.164031 -1.8252492 -0.65321183 14
-9.6421232 -1.509124 -0.61800468 48.500004
-9.4530363 -1.4010165 -0.63749278 44.461311
-8.0871105 -0.82940036 -0.518116 9
-7.9185934 -0.68097848 -0.50629157 8.666667
-7.4054518 -0.52324826 -0.52713436 18
-7.186902 -0.34143811 -0.61280322 9
-7.0831165 -0.34781617 -0.50423867 2
-6.8844442 -0.21020794 -0.60056329 37.783337
-5.8171597 0.33008221 -0.63639998 47.586868
-3.5603664 1.6316364 -0.59642875 24.5
-10.212327 -1.4723251 -0.61519289 29
-9.9660606 -1.3933773 -0.63411355 77
-9.1301928 -0.92447907 -0.54752058 2
-8.7474661 -0.65408295 -0.49291387 27.25
-8.64849 -0.72991568 -0.51887393 9.6999998
-7.9667778 -0.47451323 -0.6729902 13.5
-5.0032063 1.1482841 -0.51239073 23.25
-4.2853594 1.4317005 -0.57960629 0
-4.0313654 1.5159127 -0.59845144 0.61904764
-3.8815353 1.5358071 -0.56363153 1
-3.5750411 1.6247265 -0.49683675 31.142857
-8.8171711 -0.62562412 -0.67803174 29
-5.8983641 0.94717371 -0.59020996 37.833336
-5.4359026 1.1531836 -0.63435978 18.170475
-5.1021652 1.1863469 -0.65497512 17
-4.9371567 1.4088523 -0.55386662 7.5
-7.0529976 0.63062298 -0.64184755 24.25
-6.8698473 0.73253387 -0.72439218 31
-6.7081976 0.77201027 -0.61307359 12
-6.4354458 0.8553946 -0.63707054 14.925
-5.9651966 1.1478797 -0.58105308 20.766666
-5.7490892 1.2084525 -0.61948186 17
-5.2668905 1.4118288 -0.53575218 5.3571429
4.4823895 6.4169726 -0.61540091 1
-7.613204 0.53851658 -0.68782842 12
-2.9932091 5.9343596 -0.6096583 1.75
4.7354898 -1.9695265 -0.33151153 7.7059422
5.6066437 -1.6843352 -0.47658154 8.5
4.4197621 -2.0371976 -0.37764668 11.858116
4.5924091 -1.9913597 -0.40617988 13
4.822052 -1.6410372 -0.47932413 2
5.0910015 -1.5076845 -0.30853441 1.8333334
5.2456589 -1.5619795 -0.32801345 2.5
2.6322012 -2.3982487 -0.38013622 61
2.7796636 -2.4155757 -0.34338167 66.811066
2.9931722 -2.3040442 -0.34930906 43.061111
3.5997407 -1.9823453 -0.31157359 40.195538
3.7039802 -1.9745932 -0.35391277 1.2130159
4.2435923 -1.6601763 -0.27306104 0.70175439
4.5425944 -1.6352789 -0.32382107 1.5202899
4.7158585 -1.5983093 -0.33257279 5.3333335
5.005466 -1.4821107 -0.31243762 6.2083335
2.2585289 -2.3467383 -0.33994165 51.026848
2.5892196 -2.2846045 -0.37298432 41.965076
2.6168604 -2.2899687 -0.26121259 52.866665
3.0329182 -2.0479934 -0.34041414 46.161171
3.277401 -1.9532731 -0.36573109 51.466667
3.391217 -1.9500129 -0.35408911 42.717789
3.7390547 -1.7117455 -0.36172816 0.12538163
4.1242461 -1.6070936 -0.28860003 0.92000002
4.3818216 -1.4602244 -0.35540149 0
1.059212 -2.7788799 -0.33951932 53.113331
1.0670218 -2.6082902 -0.33827958 58.825001
1.4295561 -2.4813335 -0.34482443 51.588615
1.6705021 -2.4389522 -0.35187519 48.56905
1.8688198 -2.4239771 -0.34051231 51.973213
-1.2845926 -3.4210434 -0.31229261 26.513393
-1.1027002 -3.3751204 -0.3532863 24.830557
-0.82385445 -3.2791026 -0.35258126 31.33116
-0.51019859 -3.220958 -0.33623752 29.509342
-0.44219351 -3.2186601 -0.37607229 20
0.41682661 -2.6869943 -0.33394453 45.25
0.65374267 -2.6825411 -0.35630083 49.074833
4.0744052 -0.99743897 -0.28322685 1.9107143
4.6795635 -0.54647034 -0.33437592 1
4.7833204 -0.50280291 -0.32099143 8.8900642
-2.5381749 -3.7594824 -0.46399596 7.6666665
-2.4799526 -3.7428203 -0.37375599 10.166666
-1.9800141 -3.5744328 -0.37725109 11.57
-1.595166 -3.4952693 -0.33672336 20.466665
-1.3178217 -3.4217796 -0.43957138 26.680555
1.129123 -2.1108389 -0.32465073 86
3.6553881 -0.79181904 -0.31270522 13.317755
3.9371076 -0.73468345 -0.39413524 2
4.611629 -0.43118221 -0.47060969 7.2727275
4.6782689 -0.44621426 -0.43393105 17.666668
-3.5183074 -4.0008302 -0.45619598 12.833333
-3.2002347 -3.923943 -0.43596569 14.333334
-2.8661177 -3.8394132 -0.42703384 13.55
-2.1153772 -3.4994078 -0.26412845 20.5
-0.055887938 -2.3969235 -0.33615497 26.96875
0.53714949 -2.1641526 -0.323181 43.016369
0.89497828 -1.7717321 -0.35914028 23.333334
-5.0234537 -4.3920984 -0.50844651 2
-4.0541849 -4.0478683 -0.4654285 24.666668
-2.2979574 -3.1658401 -0.34897313 34.590607
-0.34495509 -2.2447894 -0.28560558 30.200001
-0.31963134 -2.2621486 -0.36920205 25.421131
0.42164731 -1.9590101 -0.32854563 45.749805
5.1273022 0.33499056 -0.25253356 33.833332
-4.4575186 -4.059257 -0.46465984 5
-4.21208 -3.8352528 -0.46301976 0.41666666
-2.6938784 -3.2216604 -0.23950814 2.5
-2.4045048 -2.8628676 -0.34526098 28.865368
-2.3443828 -2.8507805 -0.31860545 45.548077
-0.53825951 -1.9243321 -0.33349773 21.571733
3.6803136 0.15579695 -0.27108988 24.432352
4.4826307 0.54876798 -0.31472597 21.960218
4.783103 0.61022437 -0.22153209 9.791667
-2.7643564 -2.7979796 -0.41679305 17.25
-2.6676438 -2.766233 -0.47148141 15.25
-0.60509849 -1.6778049 -0.3396396 25.322483
3.6612477 0.17997298 -0.39638028 97.162788
3.8076541 0.40529639 -0.35141653 7.25
4.0387506 0.40660411 -0.32639289 15.173161
4.5283566 0.72409612 -0.29761213 10.761904
4.7255607 0.75306123 -0.37655717 0
-4.2676973 -3.3760855 -0.36311385 1.1111112
-4.1814823 -3.232419 -0.433227 24.25
-2.6342809 -2.5040936 -0.27115861 14.62037
3.6981432 0.69096249 -0.34293604 1.6
3.796423 0.76627564 -0.24489458 0.22222222
-3.3391817 -2.4788492 -0.4371736 26
-2.7163212 -2.2376628 -0.27871194 16.928572
3.6047361 0.9045794 -0.295789 1.1107247
-2.5556605 -1.9439435 -0.30050513 32.875
-2.4990036 -1.8792255 -0.40424427 30.5
-2.230705 -1.6290758 -0.37167415 8.1857147
-2.0264208 -1.6295614 -0.45315352 11.1875
3.5811141 1.2513926 -0.2993325 1.2547619
3.964536 1.4812503 -0.22914131 42.666668
3.9994419 1.4808306 -0.35974023 36
4.7615557 1.6386321 -0.26892519 22.285715
4.8106542 1.6725562 -0.3892428 2
3.8506489 1.5694315 -0.35655504 24.57958
4.7346983 1.9964871 -0.30285385 54.210712
3.476192 1.7781329 -0.31518716 22.737206
3.6577532 1.7073081 -0.26117828 19.208334
2.4099669 1.4499633 -0.29733264 39.3125
3.4169028 1.9779201 -0.36389136 0.5
-5.0617676 -1.7815065 -0.26770145 48.75
-4.2536049 -1.4941688 -0.33580583 7
-4.1431656 -1.4887815 -0.33278885 22.32
2.1885595 1.541549 -0.27630597 65.64045
2.4013853 1.6247675 -0.21971913 35.599998
2.7525649 1.9198947 -0.30847391 33.333332
3.6277983 2.3981237 -0.24466579 3.3333333
3.862195 2.5103941 -0.33615613 10.638888
4.5333757 2.8862941 -0.32684362 40.607143
-5.0766296 -1.5631452 -0.26363674 64.11795
-0.047536016 0.98207331 -0.32987747 42.263889
2.1295459 1.916652 -0.32466546 21.034092
3.5353026 2.6317072 -0.30758151 5.5204763
3.7590885 2.6841514 -0.27465758 2.7777777
4.481627 3.044538 -0.25057453 40.31282
-9.6943989 -3.7069612 -0.46236756 19
-7.6373405 -2.4344397 -0.2461458 16
-6.4521627 -1.9493673 -0.42508766 27.017857
-5.1115856 -1.3600054 -0.26090735 78.375
-0.080752373 1.1097305 -0.34655169 53.25
0.085221767 1.2616959 -0.31795797 77.666672
1.3801228 1.9847035 -0.33397228 8.8000002
2.1882315 2.1462827 -0.24314816 23.75
2.232558 2.3471448 -0.23550089 19
2.4228911 2.4582598 -0.27990973 16.75
-9.7609386 -3.2672298 -0.28227589 21.25
-7.9560738 -2.4302173 -0.25465515 9
-7.1394196 -1.8895533 -0.43333888 30
-6.8119354 -1.923023 -0.26608706 4
-5.3445158 -1.1329229 -0.38310793 27.416666
-5.1766348 -1.0711367 -0.34124666 76.948982
-0.053347111 1.2957726 -0.42343119 30.75
0.21254504 1.5573006 -0.32959789 62.180557
0.82688564 1.8892856 -0.35110757 28.041666
0.99082077 1.8986645 -0.33613893 10.229958
3.9333642 3.2605364 -0.3039141 13.645833
-7.1733513 -1.7788639 -0.46753606 32.138889
-5.4555635 -1.0370412 -0.29001129 27
-0.11426926 1.6759717 -0.28769353 75.212364
0.069809318 1.8384769 -0.27793309 97.892853
0.51240736 2.1440737 -0.32983226 52.038097
0.9025113 2.260529 -0.29431555 87.523079
1.1397828 2.4091246 -0.30883199 20.799999
2.4658289 3.1075225 -0.35325941 20.428572
2.9264233 3.2404513 -0.23540719 16.4
-9.9207687 -2.914717 -0.28066286 17.1
-9.0366211 -2.4229667 -0.28382239 17.75
0.79864931 2.3377249 -0.23117037 11.571428
0.91353089 2.5705001 -0.25766939 5.8333335
1.1509999 2.6576233 -0.35560426 37.466667
1.4557707 2.8335788 -0.29573163 75.950981
1.726688 2.8869207 -0.30594727 55.265774
1.9238169 3.0286083 -0.33233505 17.079367
2.5076101 3.1707299 -0.27614936 21.121429
2.6030679 3.1961944 -0.29348981 22.842106
-9.0933847 -2.2306373 -0.28245878 21.166666
-2.0288301 1.4226365 -0.28914151 0.5
0.40524662 2.5279646 -0.2194929 22.299999
0.68324912 2.7085617 -0.22436292 42.900002
1.0831562 2.7732079 -0.24952416 72.294052
-9.9609032 -2.2187145 -0.27165291 17.174999
-7.3737478 -0.85711259 -0.3732467 14.1
-5.547226 0.066515625 -0.34022626 47.75
-5.2815065 0.19137818 -0.22515757 32.25
-4.316927 0.66544837 -0.28433895 1
-0.37870586 2.4280186 -0.32390684 42.275002
-0.16796863 2.5091023 -0.31555179 40.836082
0.18202102 2.6201253 -0.24319617 51.25
-10.428233 -2.2133601 -0.24741407 22
-10.249236 -2.1449194 -0.31297401 13
-8.0731344 -0.8978011 -0.23627426 0
-5.5558138 0.12647483 -0.3193399 31.450001
-5.3029175 0.25622991 -0.34448731 27.641819
-4.8536329 0.47861606 -0.34142098 19.564814
-4.3382692 0.67528391 -0.33661526 16.75
-1.4429491 2.1149766 -0.33361852 28.265625
-10.301343 -1.8528891 -0.36625269 36.924999
-10.229277 -1.7154782 -0.30662322 21.166666
-9.6660929 -1.493757 -0.32097319 28.75
-9.4646235 -1.3876288 -0.37835935 39.233334
-9.1065264 -1.0955143 -0.26755089 2
-8.1280327 -0.86563843 -0.38889825 1.3333334
-7.9960098 -0.66539282 -0.39888814 5.4047623
-7.4238062 -0.4308483 -0.31710625 1.5
-7.1960926 -0.32144445 -0.35805354 3
-6.9832325 -0.30817378 -0.34810185 4
-6.8421097 -0.18418097 -0.34052125 28.533331
-6.4823017 -0.086277843 -0.22926258 3
-5.4169273 0.57112849 -0.28740078 3.3214285
-4.9041729 0.80892134 -0.37344632 30.4375
-3.5572464 1.6249826 -0.28797269 36.900002
-10.409331 -1.6220071 -0.23978512 16
-10.223556 -1.5242877 -0.37318286 22.5
-9.1578074 -1.0650554 -0.33135071 2
-9.1570959 -0.87661821 -0.34998614 4.6666665
-8.6390171 -0.72172326 -0.42876953 16.5
-8.4525261 -0.47788435 -0.24223529 1
-8.0163012 -0.48829466 -0.34125653 22.666666
-7.8545351 -0.43182546 -0.27963203 5
-5.4888754 0.87436116 -0.28895828 8.479167
-5.3952913 0.9394654 -0.34479284 18.375
-4.9863253 1.0788406 -0.320667 23.916666
-4.9231014 1.2484233 -0.3736062 13.65
-4.0387583 1.5129972 -0.44105601 0.6388889
-3.7995532 1.5941036 -0.4111605 0.5
-3.5394223 1.6757817 -0.27664772 12.392857
-8.8561392 -0.65055877 -0.25544375 7
-8.7847204 -0.51135355 -0.37230718 15.2
-8.221983 -0.33599436 -0.23427324 2.8
-5.3869114 1.0660138 -0.34380242 10
-5.1961336 1.4161927 -0.37172049 3.5
-4.8888559 1.3393655 -0.29977965 6.3400002
-4.5545149 1.5473514 -0.29592231 0.38095239
-4.3913345 1.5980818 -0.31803995 0.65568775
-8.3949795 0.098414302 -0.23503725 4
-6.1364555 1.1438234 -0.34189513 55
-6.0218763 1.2091303 -0.32269135 27.336735
-5.8693123 1.2916286 -0.32790586 28.35
-5.5561628 1.3842554 -0.22863619 27
-5.2293768 1.4323865 -0.37365973 3.3
-8.4956818 0.19984758 -0.23700027 2
-8.1723042 0.34735191 -0.22661267 37
-7.7250423 0.50965649 -0.21266131 12
-6.1152744 1.4505534 -0.33239827 9.791667
-5.9174118 1.5584018 -0.28636572 6.5
4.5670667 6.6479607 -0.18510327 2
-6.0933571 1.5690296 -0.33877414 4
-2.1876168 4.9838614 -0.31666088 1
-2.3951256 5.2254324 -0.40781161 0
4.6130948 -2.023309 -0.031714987 6.4285712
5.2584295 -1.8015869 -0.010235447 12.25
3.9360676 -2.106216 -0.088669136 23.465096
4.1603165 -2.0988405 -0.13189186 9.8648157
4.3298702 -1.9961569 -0.11151855 12.462577
4.6179829 -1.9716465 -0.089780673 4.6166668
5.1803436 -1.4395034 -0.054197486 14.75
2.779357 -2.412529 -0.09734036 80.736374
2.9970126 -2.3333688 -0.097484589 56.222614
