# .PCD v0.7 - Point Cloud Data file format
VERSION 0.7
FIELDS x y z intensity
SIZE 4 4 4 4
TYPE F F F F
COUNT 1 1 1 1
WIDTH 1358
HEIGHT 1
VIEWPOINT 0 0 0 1 0 0 0
POINTS 1358
DATA ascii
17.779377 7.7654524 0.17524494 1
-9.46982 9.1597414 -0.032033741 2
3.7356899 11.811477 -0.21050835 12
6.6722302 11.812124 -0.19358778 11
3.5507512 12.229845 -0.14584394 13
6.5646758 12.388001 -0.060233712 6
7.0244522 12.379005 -0.12907863 3
5.3208804 14.813395 0.35167679 14
7.0197849 15.092916 0.27978703 9.5
5.3710322 15.598575 0.055235609 20.5
10.618576 15.915103 0.43109286 8
2.419261 16.628189 -0.09704408 18
75.240112 -39.101559 2.1676879 34.5
75.497589 -29.328972 2.171618 35
75.063095 -27.18084 2.1135554 34
76.187263 -24.307526 2.0750456 34
18.661591 -22.718405 1.4833721 3
32.9851 -21.917601 1.9049443 6
79.926956 -19.193821 2.0514202 36
15.6359 -19.4849 1.2409152 8
29.665108 -15.862565 1.5322441 24
4.8723168 -3.9393682 1.2028037 0
-11.091826 -4.3549299 1.0103683 3
-5.7042284 -4.2073116 1.0357585 4
-1.6492577 -3.9769239 1.1131001 2
1.9494572 -3.8440235 1.1074171 2
6.9041457 -3.2374909 0.95689231 11
7.6755505 -3.2124004 1.0106401 15
19.743702 2.0382876 1.1427572 18
12.103666 2.041502 1.1007918 41
19.878323 2.684299 1.1527598 1
3.5845947 4.7598324 1.1180319 16.5
-2.8466177 4.8759432 0.92094445 9
16.630295 5.532052 1.1521052 6.5
-21.641293 5.0747051 0.5780828 12
-9.4582453 5.8696876 0.78809142 1
25.028801 11.644596 1.193698 4
25.61385 11.717232 0.8336696 5
-18.849895 10.613397 1.2681311 10
5.4409094 14.854086 0.61160785 7
6.3922873 15.004567 0.6216706 11
6.9079661 14.950166 0.62295306 13
8.3989782 15.625156 1.0331565 6
10.540312 16.078421 0.72242486 8
11.196459 16.088032 0.73698622 21
12.391239 16.299862 0.7744543 8
15.74207 16.357304 0.87938088 4
-10.453942 15.616782 0.98003829 2
-1.0994911 18.773022 0.82096863 7
75.270226 -39.070583 2.8589916 28
44.762093 -35.182884 2.9021165 15
74.945633 -27.405945 2.5459898 28
75.297256 -25.590006 2.9409382 38
75.827896 -24.707996 2.5049734 28
76.592445 -24.148476 2.9467111 39
79.459358 -9.2570744 2.7079182 38
19.560041 2.0703177 1.6766963 1
12.082425 2.0001717 1.6124742 45
15.063211 2.1404121 2.4081337 7
18.714188 2.4381216 2.3208892 5
18.528385 3.2017114 2.3045294 4
-5.6242981 2.9521708 2.1185462 26
-1.1619024 3.5012598 2.0982211 12
-0.96467733 3.850018 2.0865476 14
13.970619 3.8044174 2.2458656 6
28.200298 6.3676586 1.8734008 2
23.658684 7.0337086 2.2700872 2
-20.422382 6.8197985 1.3370165 7
-20.100582 7.3449788 1.9611465 12
21.375164 9.3311319 2.0954657 2
-18.072464 8.8369732 1.8276294 11
-18.089146 9.7136097 1.8399168 7
25.715187 11.708906 1.7608602 2
-8.6970959 11.429664 2.034431 2
-4.2271576 16.143017 2.0308104 9.5
-1.7123098 17.286381 1.9983083 5
5.6188011 18.730179 1.9761066 15
76.402412 -26.296545 3.8679709 38
77.336372 -24.406898 3.8528247 38
33.997036 -21.474174 3.3612633 6
82.492455 -14.265117 3.8178523 40
79.377174 -8.4830236 3.5462801 37
15.351213 1.9788913 2.4786375 5
17.325756 1.9577239 3.010143 7
17.509487 1.6715829 3.0530417 2
22.93222 2.2345757 3.1033483 7
14.974305 2.5372012 2.4043987 2
-4.6863861 3.5641942 2.9652915 7
-3.1632442 3.3384948 2.5717862 12
13.311702 6.1159344 2.3977871 2
14.109114 7.3948278 2.7692351 7
-2.5003233 7.3774834 2.8854752 16
13.984381 7.6868334 2.7938859 4
17.72176 7.9430604 2.4490962 4
25.678833 8.8770685 2.5692394 10
-4.3735847 10.961526 2.5342748 27
23.932266 11.683784 2.4924626 6
-6.6106262 11.686921 2.8956175 11
-3.622963 12.203304 2.5953493 6
5.1771016 13.412387 2.2034242 4
7.5978799 15.277421 2.5270491 15
-8.638238 15.573005 2.301486 10
0.84475565 15.267165 2.6526022 7
1.4127536 16.272062 2.7804945 5
5.9160147 17.171272 2.8229718 8
18.557911 20.608988 2.6623538 13
9.8425646 23.5427 2.5438604 8
75.140526 -38.995228 4.2373276 41
16.092075 -18.561172 4.194983 12
-5.4542208 3.5385456 3.1559334 5
-19.647926 7.8202848 3.0453544 38
-18.898132 8.6492491 2.9794126 15
-18.716362 9.2754431 2.9748607 16
-19.0406 10.200699 3.0357535 11
-7.6258478 11.907083 3.051867 9
0.31698513 12.615377 3.4658513 4
0.85321331 12.478967 3.3779302 6
1.2000165 12.744743 3.4046829 5
5.6623659 12.824892 3.1868429 12
1.9239721 12.966807 3.3928895 3
2.3172402 13.298428 3.4416389 11
3.4999831 13.043248 3.3065333 9
3.8998392 13.148347 3.313375 5
4.7337627 13.171536 3.2898569 4
5.1670384 13.443409 3.3480732 13
6.2307692 13.664811 3.3962336 4
7.6933222 13.717471 3.4359243 9
7.994709 13.812826 3.4703102 9
-4.0208263 15.560084 3.0712345 9
13.80344 16.875858 3.1078079 9
14.431411 16.853287 3.1562784 6
17.785572 18.755125 3.7430255 8
6.9674559 26.814964 2.8451397 10
7.5424585 27.173389 2.8890553 11
8.5690651 28.30509 3.0231879 11
75.078117 -39.244465 5.6313639 28
44.487789 -35.130028 5.0174193 16
83.14373 -24.307917 5.5196424 28
79.701294 4.0263314 4.6312976 28
-3.2978182 11.98308 3.8347163 3
12.057364 15.348446 4.1308775 3
34.258465 25.700027 4.3912549 9
-36.544498 30.353294 3.5435579 17
-32.753757 39.383179 3.6636696 21
29.988827 -15.674265 5.5738025 18
15.408762 17.241302 4.9514551 6
14.436925 17.7027 4.9333162 4
16.639286 17.458897 5.1673417 6
44.362938 -35.226665 7.1584201 28
-32.297798 30.941347 5.3411746 27
76.845993 -40.576355 7.698936 28
-36.41087 30.485096 5.6933479 28
-32.47929 35.004879 5.6153789 28
-48.75885 24.745916 6.684423 28
58.608261 -42.696106 9.2850151 28
-37.015289 30.084572 8.8559494 27
-32.497887 30.476891 8.2548695 27
45.618347 -35.124916 10.425293 27
57.285194 -40.991554 12.906063 32
44.105103 -35.402981 14.720415 19
48.096569 -35.237522 15.511147 23
70.84642 -18.219509 -0.40699193 28
47.411034 -17.603519 -0.45033762 9
12.705004 -16.174562 -0.60309964 6
13.784822 -15.678206 -0.59816235 11
14.300659 -15.83095 -0.5587911 13
17.299099 -15.686734 -0.60203499 12
19.33902 -15.310038 -0.92057312 4
37.638573 -14.402641 -0.91996545 6
14.068336 -15.440308 -0.69276434 12
33.02972 -13.76233 -0.95433348 4
17.951155 -13.909211 -0.93032235 3
25.552711 -13.646903 -0.71428078 5.5
26.381931 -13.160242 -0.59832126 11
32.675003 -12.781216 -0.93683434 3
15.003153 -12.534684 -0.95162708 6
24.225483 -12.105242 -0.89771551 2
25.580994 -11.85067 -0.56826729 7
30.90205 -12.201939 -1.0275618 4
24.430996 -11.196494 -0.89048856 2
30.695797 -10.870914 -1.0097635 4
32.643787 -11.252773 -0.92960173 3
36.573151 -10.310522 -0.88930792 5
11.185119 -10.998656 -0.68997902 4
11.595724 -10.867093 -0.69018936 3
13.300547 -10.831142 -0.75402707 8
14.714935 -10.878936 -0.66066593 3.5
22.51717 -10.292679 -0.90431851 5
26.129803 -10.367088 -0.95081991 5
32.437702 -10.334274 -0.9200756 3
10.429081 -10.659301 -0.85604042 25
10.631819 -10.656463 -0.72789973 21
11.582128 -10.844994 -0.89459485 7
13.528425 -10.7321 -0.65821028 3
15.028343 -10.639024 -0.72482526 7.3333335
15.360807 -10.454622 -1.0125256 2
24.391438 -9.452508 -0.97766703 4
30.754967 -9.6398764 -1.0058216 3
14.942451 -9.6725693 -1.1236217 2
18.184727 -9.247118 -0.72466248 5.1999998
16.703003 -8.3988047 -0.97744244 1
20.913506 -8.7107544 -0.89363313 4
80.330788 -5.2588692 -0.24752751 28
13.518211 -8.106782 -1.13255 3
16.054356 -7.7989869 -1.0774356 1
19.438545 -7.4568357 -1.1225646 6
25.17944 -7.4362249 -0.99264008 6
23.763458 -6.9027138 -1.0182947 8
11.277963 -6.3394027 -1.0449036 6
11.77597 -5.4909768 -0.98926574 1
14.663297 -5.6457658 -1.0384076 7
16.382511 -5.6020246 -0.99368775 11
18.125307 -4.1694989 -0.93533224 8
10.641836 -4.0476379 -0.96930629 1
15.82711 -3.4771895 -0.87140256 3
-7.6161966 -4.2218347 -0.95680499 8
-6.2528048 -4.1477699 -0.95492709 12
-5.0586109 -4.0609574 -0.95024461 6
-3.3080711 -4.0161681 -0.9571436 10
-1.9909229 -3.9243498 -0.96710449 12
-0.34214497 -3.8809671 -0.94091475 10
10.76163 -3.0290897 -0.84920532 0
11.132244 -3.1672254 -0.91727918 3
13.193581 -3.1411331 -0.75508559 4
13.38076 -2.8512781 -0.76197332 3
16.242043 -2.866097 -0.76300925 1.5
18.264893 -2.7533617 -0.79675865 6
20.90827 -2.6891489 -0.78645974 3.25
23.467384 -2.3968132 -0.70088702 2
23.629051 -2.3169277 -0.80416322 3
25.93338 -2.3260646 -0.70302051 4
26.361366 -2.1904755 -0.83214229 5
-17.119339 -4.099134 -0.98427892 3
-10.875758 -3.8882079 -0.94621748 4
-9.7679567 -3.6116147 -0.99230134 3
23.47364 -1.8341923 -0.80030078 3
26.110756 -1.6943823 -0.82605845 7
30.021038 -1.3631361 -0.74224442 2
33.225998 -0.87208253 -0.70638651 3
-10.713235 -3.1992793 -0.94243217 2
-9.7900934 -2.838093 -0.99828464 4
-5.8035622 -2.2986817 -0.92509961 3
-4.72721 -2.1863074 -0.92240912 3
23.43111 -0.98936003 -0.80707473 3
33.117577 -0.33408284 -0.71154648 3
-7.0327034 -2.202219 -0.92624527 5
-3.0889778 -1.5662094 -0.92525786 4
-1.9290152 -1.3098087 -0.93537146 2
-0.42154217 -1.1071023 -0.90027803 2
32.32188 0.28895754 -0.69941401 3
0.54077959 -0.95378941 -0.92766792 5
1.8513384 -0.68907195 -0.9124465 1
3.0315714 -0.43425554 -0.91838157 1
4.2631278 -0.26457411 -0.91986144 1
32.313477 0.80557603 -0.70783919 3
39.637737 1.3435624 -0.73285103 5
31.459728 1.7073559 -0.70021707 3
3.5260463 1.2832327 -0.86889476 17
5.6690974 1.169757 -0.99267858 1
8.8203764 1.6345758 -0.96916372 0
13.005813 1.7442671 -0.89341974 11
14.890525 1.791682 -0.87448442 4.5
17.506031 1.8952334 -0.91637951 4
18.802708 1.9628572 -0.89384341 5
38.545506 2.8181674 -0.73546106 5
75.068916 -39.398048 0.66313261 28
70.429825 -25.745502 0.46834606 28
38.230206 -23.637228 0.37312353 7
70.843246 -18.249163 -0.022857513 28
21.222017 -20.581333 -0.0066874293 9
21.339024 -19.570059 0.13144332 9
15.227879 -18.892334 0.23800564 8
30.153217 -18.153381 -0.056622144 4
15.153595 -17.452503 -0.11349294 5
14.28372 -16.923012 -0.21637034 6
37.931236 -15.209867 0.26224267 6
12.643942 -16.180687 -0.50302052 22
13.389203 -16.32658 -0.20695189 9
17.602739 -15.936929 -0.33771801 5
18.408195 -15.192041 -0.33807188 2
25.186977 -13.671375 -0.44102028 60
26.267662 -12.794326 -0.32697129 2
11.224279 -10.990549 -0.51841933 3.5
11.568828 -10.863158 -0.51773322 5.5
13.259134 -10.880551 -0.47598845 4
14.853972 -10.794497 -0.49443623 5
10.591073 -10.670496 -0.23529096 24.583334
13.452053 -10.716841 -0.55887848 5.6666665
15.098577 -10.644467 -0.54741949 3
-10.223542 -4.3100891 -0.69715405 4
-9.5526381 -4.2808828 -0.56799036 2.5
6.8045874 -3.5975955 -0.30512044 31
6.8968205 -3.2110817 -0.18080625 15.470589
7.7551565 -3.1923728 -0.21577938 14.85
8.6882067 -3.17222 -0.41978055 3.3333333
9.5697384 -3.2338269 -0.36705813 3
10.851498 -3.0443084 -0.59056538 1
12.137262 -3.090729 -0.38634032 3.5
13.075534 -3.1553371 -0.50847012 8
13.476449 -2.9501848 -0.43952391 3.1428571
14.425375 -3.0407815 -0.37412515 3
16.201607 -2.8834658 -0.51308906 6.4444447
18.187674 -2.7690055 -0.55524379 7.5
20.804321 -2.712795 -0.53499675 3.7142856
23.417624 -2.3203518 -0.51074076 1
25.957439 -2.2972136 -0.43214545 4
28.3769 -2.2787898 -0.30767706 2
4.9526529 0.33875677 -0.72624958 30
5.2491159 0.43583477 -0.25635687 15.956522
0.74771214 1.3316745 -0.39340529 18.25
1.0254331 1.2804734 -0.41816857 13.666667
2.2287521 1.4146638 -0.18962812 18
3.1677637 1.4667034 -0.19019708 18.4
3.7277958 1.3876323 -0.32707796 16.571428
4.6404085 1.5050917 -0.24918076 19.333334
5.2382469 1.5966383 -0.24218278 16.111111
6.0312319 1.604594 -0.42951271 15.75
6.979435 1.6575805 -0.27158013 56
7.9860353 1.7427547 -0.19602548 40.357143
8.3570766 1.7130089 -0.4332273 18.25
9.3635273 1.8012136 -0.21794915 16.368422
10.182377 1.8895218 -0.11298147 11.666667
11.015041 1.8589553 -0.34819776 14.714286
11.456371 1.8698933 -0.24354956 8.4285717
12.550039 1.8978277 -0.29397738 15.230769
13.342276 1.8009738 -0.41220737 15
14.081062 1.838558 -0.44582063 8.6000004
15.03482 1.9029182 -0.35643759 8.625
16.115818 1.9508727 -0.02501424 5
16.721069 1.9727528 -0.44812229 6.6666665
18.359856 1.9356912 -0.73101914 4
19.024382 2.0037761 -0.70550096 2
0.66445494 1.4657828 -0.51045078 16.5
1.37709 1.4906046 -0.37418312 17
2.2066202 1.5280756 -0.37195921 11.8
3.0191412 1.696995 -0.23997574 16.5
3.871892 1.6782042 -0.26956597 16.285715
4.568121 1.7634684 -0.19573429 14.586206
5.3500695 1.8501551 -0.22433451 13.282051
6.1256561 1.8541006 -0.27939737 14
6.9004607 1.88625 -0.25061575 27.958334
7.6444211 1.8919269 -0.22073485 29.268293
8.5289106 1.9521952 -0.30942276 13.6
9.3196077 1.9654566 -0.16904959 6.3225808
10.19262 2.0049226 -0.23534739 11.592592
10.975561 2.0962372 -0.24893804 13.823529
11.868042 2.0679359 -0.40965346 30.333334
12.178459 2.0147729 -0.24004331 17
13.987244 2.2416317 -0.033423234 2
14.837606 2.2885098 -0.10018058 11
70.023575 7.3146882 -0.040128853 28
10.27847 4.5369205 -0.62062114 1
-2.851346 4.8667016 -0.22244219 13.5
3.6941311 5.0858073 -0.24348888 15.769231
4.3395209 5.2000837 -0.22868735 2.6666667
10.197255 5.3453126 -0.32244965 7.6666665
11.033794 5.9268627 -0.55038673 1
-1.2274923 6.0754523 -0.2255965 2
0.41649771 5.5896387 -0.1965532 2
2.1267471 5.9042664 -0.21736577 6
4.3898897 6.1249647 -0.24195322 9.3999996
5.3059545 5.9430881 -0.20848987 4.9000001
6.1929483 6.0626845 -0.25161985 15.857142
6.3583941 6.0606103 -0.232281 46.166668
7.7402744 6.071466 -0.2485933 39.53846
8.366271 6.0365548 -0.30018952 3.3846154
9.9947624 6.2764835 -0.35278141 10.785714
11.286486 6.348928 -0.29991058 2.0999999
5.3776102 7.1389704 -0.30523559 1
6.5341535 6.7719464 -0.27486235 7
8.045579 6.6198163 -0.14469281 116
9.7489901 7.1158128 -0.23563105 2.6666667
10.873692 7.2932057 -0.28409299 1.6666666
4.1874866 7.6896114 -0.48657456 30
5.3294101 7.3511615 -0.40019879 2.5
6.947988 7.3608003 -0.31609175 21.5
9.2071962 7.4851422 -0.46426198 14
9.5011692 7.5149927 -0.2668691 1
10.823021 7.5742073 -0.43502727 4
3.6993058 8.5905304 -0.41197675 12
3.894866 8.6151867 -0.38258135 10
9.6626377 8.969738 -0.37135819 14
3.3159423 9.3598709 -0.36135682 10
5.246871 9.1034851 -0.35433158 13.5
6.3845062 9.5537701 -0.33154002 13
9.815733 9.7380276 -0.3171908 12
8.7056503 10.480444 -0.28589112 16
4.6689048 10.995409 -0.26704121 11
75.030052 -39.343376 1.345034 28.5
75.524681 -29.75136 1.3980074 32
75.286446 -27.722775 0.93109554 28
75.252251 -22.597065 0.8478564 28
75.455315 -20.825026 1.2344462 34
75.683968 -19.339945 1.2108532 34
15.959113 -19.678913 0.62714809 10.2
80.045975 -11.295677 1.126563 32
27.844509 -13.346394 0.85752904 3.5
80.940292 -7.5600486 1.0748122 32
10.582029 -10.681026 0.47334018 23.142857
81.474014 -5.7914176 1.0521396 32
-9.7488813 -4.3171554 0.25375682 2.5
6.8992038 -3.2164097 0.22230086 10.818182
7.706233 -3.2000396 0.22603153 15.727273
32.871738 -2.4324837 0.21758617 4
5.2730122 0.41679072 0.11381559 20.538462
9.3988962 1.8465266 0.010233704 4
11.070024 1.9460945 -0.0095787477 0
12.112297 2.0059443 0.61465365 62
12.154327 1.9990495 0.11523093 20.833334
0.068705082 1.5154983 -0.037911136 4
0.44541121 1.6968606 -0.040229321 11.333333
1.2278662 1.7082093 -0.076272622 9
5.3974595 1.9685982 0.0023232545 9.666667
9.3546896 2.0199206 -0.0076150713 5.6666665
10.407055 2.1541696 -0.007108835 2.5
12.122482 2.076437 0.15765274 34.5
12.16275 2.014617 0.026673254 46
13.820517 2.263113 0.0050028875 1
30.854015 6.0400743 0.48757762 3
-10.980351 4.3650541 0.12296614 5
-10.382876 4.4892793 0.22218761 3
-9.1208944 4.6524563 0.3345814 9
-8.7169542 4.6540823 0.072926402 20
-2.8679457 4.8558607 0.019145597 12.888889
3.6237354 4.9770713 0.081546135 20.529411
4.2182865 5.0707903 0.073173985 3.8333333
10.225051 5.2887845 0.057442624 8.25
16.64064 5.610146 0.19899347 10
19.68335 6.0897503 0.22266549 1
31.120258 6.3897629 0.77513099 3
-8.7927694 5.3914261 0.48683998 1
-6.8154449 5.4018226 -0.19373065 223
-2.14711 5.6342092 0.06019767 3.1666667
-1.2015371 5.7667122 -0.0133751 4
0.32108641 5.590601 -0.01561771 6.6666665
0.97202063 5.6046529 0.10483153 2
2.0074186 5.8132844 0.024520356 0.27272728
4.3707051 6.1446099 0.083862677 38.714287
5.320714 6.0857244 0.051350426 11.25
6.1848702 6.2177358 -0.031112511 6.25
6.3348055 6.3162727 -0.041395489 0
7.551497 6.2846141 0.011785414 8.75
8.513505 6.1241617 -0.0087887906 24.777779
9.9392557 6.4377217 0.027648043 10.777778
11.117101 6.0370798 0.32853186 24
11.234026 6.263556 0.033564437 10.666667
13.776313 6.4160156 0.13027008 1.5714285
15.03031 6.5790148 0.43656585 0.5
15.110202 6.4622998 0.1774337 1
21.821882 6.7343411 0.21981423 1
-21.475838 5.713758 0.38120461 13
-9.1287413 6.0086164 0.49544671 1
-7.6216793 6.1503778 0.2290467 3
-7.2124872 5.8356075 -0.11226915 2
-2.4141684 6.5720835 0.39964074 1
-1.2651358 6.2950902 0.055525709 0.42857143
0.14125538 6.6201658 0.31808415 1.5
1.7734003 6.6042752 0.27250123 0.5
4.2486353 6.4374437 0.053433094 0
5.3944006 7.1686802 0.035074104 0.5
5.9861536 6.8255372 0.13211404 2
6.9521132 7.2015643 -0.015946086 6
7.6933222 6.9870067 0.28256288 2
8.3636398 7.0150294 0.013607983 25.333334
9.6802282 7.3057003 0.087728158 17.384615
10.761971 7.3067999 0.12505969 0.875
14.117178 7.0296845 0.48817238 0
17.733597 7.7283216 0.24200386 0.5
32.991768 8.0896988 0.43724212 3.25
5.4191775 7.3226256 0.058245245 0
5.4479289 7.3067274 0.036058519 0
6.2983389 7.348063 0.080680728 1
9.5943937 7.53724 0.33705476 2
-9.5111189 8.7268085 -0.045767557 2
2.6745052 11.420286 -0.15205634 1
4.3906898 12.0578 -0.14975218 4
5.6952653 12.571779 -0.14725874 4
6.4479747 12.446066 0.07420519 10
9.49617 15.237821 -0.058823999 7
75.163528 -39.099041 2.481503 39
75.506935 -39.00251 2.0299349 28
75.770233 -30.18137 1.845122 28
75.069443 -27.080097 2.1923821 32
75.378639 -25.854969 1.7487911 28
75.56974 -22.190397 1.6786234 28
19.12125 -22.560965 1.4867228 7
15.964622 -19.70734 1.257643 7
27.848179 -13.43581 1.7894882 2
10.418246 -10.76268 1.5844678 22
10.637805 -10.691604 1.1167202 23
-10.364507 -4.3281579 1.0073713 3
-4.9705219 -4.180522 1.0475254 4
-0.49511623 -3.9194059 1.0975443 4
3.0194459 -3.8005254 1.1078874 18
6.2134709 -3.6706018 1.1265174 0
6.9030113 -3.2405982 0.96918154 10
7.6988769 -3.2278848 0.96329027 17
12.09252 1.9922025 1.3389319 44
19.751141 2.0587559 1.0686871 38
19.709156 2.5357873 1.0639173 18
-2.8467493 4.6654997 1.2234901 16
3.5332131 4.7670317 0.98946619 16
10.117727 5.2471023 1.2214682 8.75
16.597599 5.5575171 1.0586295 8
-21.62989 5.1173067 0.56276315 13
-20.611309 5.1601076 0.8718009 12
4.9274635 6.9288754 0.75111121 0
4.2188778 7.4135795 0.82594377 0
-18.144169 9.291995 1.2432441 10
24.626911 11.700025 1.1356524 3
25.365353 11.658739 1.17627 4
5.160955 14.894864 0.60643935 21
5.9978657 14.831064 0.60370225 9
3.6316452 15.702033 0.64590603 6
8.7729206 15.606105 0.65546894 6
9.550252 15.724461 0.67098647 6
10.863435 15.848572 0.69885749 6
-6.8638248 24.812691 0.48797479 10
75.204071 -39.101246 2.9382069 28
74.871254 -27.52972 2.6221662 28
75.479263 -25.301817 2.796947 33
76.329063 -24.280838 2.5846639 28
15.746264 -19.569073 2.1225686 7
15.144893 2.1864278 2.1539178 4
15.190474 2.7563639 2.1998947 3
15.429939 2.5326507 2.2487216 7
26.470924 4.3543544 2.456681 8
-0.93376923 3.4015961 2.2788904 6
14.112442 4.1840477 2.0665424 4.5
-0.39559031 4.005949 2.2056587 11.5
-2.8885307 4.6091647 1.8930941 19
3.2252326 4.827199 1.5661489 5
16.474697 5.587698 1.8926146 4
27.886707 6.3920736 1.7850001 2
18.097879 7.7253084 2.3303289 4
17.859795 8.1172495 2.329452 4
-19.445847 7.4223108 1.9547502 8
21.400375 9.4148407 2.000524 4
-18.29866 8.4745874 1.8805073 12
-18.185287 9.6190634 1.563408 9
24.830338 11.667171 1.6343874 4
-18.717693 10.750778 1.2769175 11
33.18354 12.996087 1.6458352 3
26.906361 15.958934 1.9238394 3
-1.6800928 17.239958 2.0248103 5
5.345582 18.804691 1.9766995 7
38.941059 23.77055 2.1297145 7
-6.493268 24.798676 1.1419632 11
76.210823 -26.960123 3.939487 38
76.697983 -24.953747 3.9000692 37
34.344223 -21.202299 3.3408732 6
19.395962 -21.376482 3.459342 13
82.887131 -13.369692 3.8780296 40
10.738886 -16.764494 3.4448032 17
79.138977 -9.3760548 3.610291 37
23.138573 1.665467 2.9611492 4
17.709681 1.8908284 2.8345912 6
18.536461 1.7108489 3.0556965 1
23.412418 2.2005212 3.0147259 5
-2.9211988 1.7040586 2.6938813 10
-1.3353405 2.4825079 2.3178148 7
-5.5115404 2.9144313 2.2655509 14
-1.1395941 3.3268065 2.324703 7.5
-6.0566092 4.2778668 2.3974369 12
26.987049 6.1331153 2.5481045 6
14.674223 6.7739015 2.5629213 2
14.804871 7.2806249 2.6736932 1
25.570835 9.1459961 2.4633296 6
-1.3208523 7.8336663 2.9146638 14
-4.2823734 10.705973 2.606024 7
-3.9976597 11.422899 2.6484814 7
4.7641563 13.198908 2.1841619 7
-6.8202028 13.6188 2.076829 14
7.5783401 15.353983 2.5124462 9
11.192962 15.861016 2.7038009 7
12.203781 15.912369 2.767622 5
-4.0109625 16.195747 2.0681906 8
13.428045 16.620577 2.9579611 8
5.9365568 17.164938 2.8122101 5
19.940929 20.180902 2.6548223 4
72.477242 7.436739 4.1550221 28
-2.6867876 6.905385 3.0596876 3
-2.583498 7.3493304 3.0977638 7
17.09819 8.1074905 3.2835095 1
23.422523 8.4491663 3.2573469 3
-19.061771 8.4219294 3.0736916 17
-19.217567 10.233039 3.1334474 6
-6.8389111 11.562335 3.0295017 9
1.1345739 12.48619 3.4429893 10
2.007679 12.636978 3.3836443 11
5.732131 12.866145 3.1974709 10
1.5559397 12.829712 3.4735813 3
2.4839911 13.373587 3.5097382 3
3.4531648 12.901914 3.3213766 8
3.919735 13.12257 3.3428919 10
4.740202 13.514886 3.3941925 12
5.3354125 13.07058 3.2606916 8
6.0019035 13.66016 3.3884587 10
7.8108916 13.736639 3.402775 6.5
14.445963 16.846575 3.0678005 3
-1.043725 16.889334 3.0723324 3
10.614178 19.202898 3.2203298 14
6.787293 20.167347 3.3057318 7
6.8539639 26.936911 2.8392324 16
-46.093838 27.916075 2.670011 28
75.793915 -38.790367 5.7006617 28
83.084106 -24.281963 5.5652156 28
83.895676 -19.633207 5.465292 28
20.880283 -21.832222 5.1610208 10
9.560709 -17.05517 4.956059 1
80.61644 -10.84315 5.0089531 28
80.409798 -8.9941969 4.9507866 28
11.713349 15.513685 4.0330729 4
8.6595087 22.604685 3.7274618 8
34.215561 25.570881 4.3046331 9
-3.4997368 34.747353 3.8013721 9
15.885468 -26.069601 5.5196152 11
29.673504 -15.885936 5.4270015 11
14.723951 17.562128 4.8053112 5
-46.133698 28.454134 4.0927424 28
13.442343 -21.286808 6.3798308 5
-33.513321 30.573885 5.4606934 28
-32.269028 30.9582 5.3702664 28
76.724808 -40.607422 7.7220559 28
-21.385876 45.364983 5.6302414 28
58.390339 -34.762154 8.5244455 28
-45.971363 27.900932 6.5404396 28
58.647697 -41.628315 9.1703615 28
-36.049114 30.211214 8.809267 27
57.081467 -42.092129 12.956714 32
58.251225 -40.969105 12.979923 32
46.899647 -35.311287 15.133338 21
49.124004 -35.260639 15.589557 23
36.996693 -16.637079 -0.91290402 6
36.896301 -15.279303 -0.90365124 5
12.121519 -15.854278 -0.59853709 17
13.307719 -16.027872 -0.61264515 11
14.087387 -15.597144 -0.60540032 9
18.322388 -15.265097 -0.66505527 7
20.443548 -15.321708 -0.83079946 7
18.317841 -15.016002 -0.86920679 3
18.861755 -14.361048 -0.70413643 2.5
35.904625 -13.279486 -0.86747646 5
25.462151 -13.472498 -0.57440132 10
23.416119 -12.529787 -0.85602999 2
35.606796 -11.648332 -0.85556686 4
26.615406 -11.447728 -0.83898747 9
22.131687 -11.089401 -0.87864769 1
23.990429 -10.85613 -0.84440094 4
29.820976 -10.750048 -0.95666277 7
31.3088 -10.428702 -0.86846173 4
37.563732 -10.289696 -0.73814338 9
39.815697 -9.8995075 -0.79992831 5
11.40531 -10.915766 -0.68843853 6.5
11.874249 -11.291387 -0.92672038 4
13.01746 -10.891395 -0.78434432 5.3333335
13.551721 -10.756436 -0.72009963 4
14.742725 -10.821754 -0.70750654 5.3333335
15.145674 -10.665723 -0.71192598 2
16.692646 -10.725892 -0.89997876 5
25.579468 -10.287463 -0.901802 5
34.695942 -9.6499147 -0.82716548 4
10.549498 -10.641927 -0.79298735 26
15.600234 -10.37381 -0.98659146 15
16.814459 -10.258288 -0.67411768 1.6666666
20.33383 -9.6634607 -0.85497546 2
24.197693 -9.3436527 -0.93515301 3
31.342987 -9.2111454 -0.86562657 5
37.480762 -8.1446228 -0.57073969 9
80.365593 -5.2843494 -0.30630785 28
7.2183266 -9.9039955 -0.82601583 3.5
7.9940357 -9.982028 -0.7469908 7.5
15.72608 -9.0171003 -0.91090447 3
31.09581 -8.2035551 -0.85488939 5
7.1890268 -8.9778976 -0.74192894 1
15.616636 -8.5526762 -1.0402726 1
18.595226 -8.5717812 -0.89728713 3
7.1442046 -7.9261637 -0.94304973 2
14.565542 -7.5812244 -1.1026031 2
21.687969 -7.3244252 -1.0439112 6
23.836126 -6.9235797 -0.9794488 6
16.761368 -6.9120584 -1.0165009 0
11.679708 -6.2781224 -1.0099566 2
15.341029 -5.7619505 -1.0238813 1
12.748542 -5.0611019 -0.94951326 1
11.683937 -3.6913338 -0.93087733 0
13.34083 -3.96351 -0.90252602 0
20.799488 -2.8942182 -0.76501274 6
-6.8197784 -4.163908 -0.873209 4
-6.157836 -4.1551733 -1.0150597 5
-4.7479515 -4.0342855 -1.0009578 3
-2.8138084 -3.9797454 -1.0023986 11
-1.3948002 -3.8883886 -1.01038 10
7.7415071 -3.7805815 -0.76921707 3
10.753545 -3.1419683 -0.74833977 3
12.004398 -2.9012706 -0.86970973 0
13.183326 -3.1874256 -0.82084584 6
13.729149 -2.9368768 -0.86987066 9
16.258879 -2.8491225 -0.8050437 7.5
18.239019 -2.8496068 -0.76766336 5
18.583679 -2.5958366 -0.87271571 7
20.876171 -2.6100729 -0.72021818 5
23.291065 -2.4094124 -0.74488735 7
26.168266 -2.2301183 -0.73818833 4
26.99511 -1.6941781 -0.72426987 4
-11.787066 -3.803019 -1.0381825 5
10.884884 -2.6073022 -0.97760767 0
23.986191 -1.6581588 -0.7856425 5
32.452305 -0.85506195 -0.6744765 3
-10.607505 -3.4968181 -1.0925475 2
-7.345336 -2.6848011 -1.0028383 5
-5.8575325 -2.7350612 -0.99424791 3
-4.5217829 -2.4071679 -0.98067039 3
23.761583 -0.93306881 -0.78109288 3
24.116472 -0.31190783 -0.80709255 5
27.218086 -0.48255318 -0.74798071 4
32.033806 -0.17922279 -0.67224073 3
-2.6759214 -1.7881892 -0.97724843 5
-1.3500805 -1.5117972 -0.98039526 3
0.32122421 -1.2205482 -0.93603748 2
23.830572 0.2293621 -0.80007929 3
31.65041 0.63017142 -0.67380893 3
38.041855 1.5622623 -0.70026976 4
1.3704438 -0.98229283 -0.95987844 2
2.7947292 -0.7000038 -0.93544638 1
4.0249724 -0.4344542 -0.93949944 1
5.3202324 -0.23263803 -0.93308353 1
23.552109 1.0658081 -0.79992235 3
23.519516 1.7422469 -0.81178081 3
37.371998 2.6386991 -0.7037338 4
3.4420953 1.3264711 -0.86807626 15
9.9190216 1.7872937 -0.9873262 0
14.154424 1.7941635 -0.90057778 7
15.693817 1.850178 -0.91895097 6
16.813353 1.8639622 -0.88705641 6
18.2701 1.9382591 -0.89295107 4
75.090004 -39.544426 0.57965302 28
70.434601 -25.677124 0.39588436 28
75.32769 -22.393972 0.35599974 28
19.016115 -22.352938 0.11979829 10
20.868544 -20.896963 0.18533599 6.5
15.944058 -17.467955 0.035244744 5.5
12.739257 -16.692772 0.18098103 5
13.544064 -16.405752 -0.2229365 5
14.405845 -16.88191 -0.1254075 5
37.714256 -15.186204 -0.15935402 5
12.091061 -15.976281 -0.31161579 10
12.30504 -15.957149 -0.41028535 11.333333
13.116919 -15.790874 -0.5057745 13
14.147872 -15.919578 -0.46758646 8
17.358755 -15.880597 -0.44961911 5
74.221107 -11.310645 0.005114329 28
27.541481 -13.28558 0.18744284 13
26.128075 -12.382014 0.048020821 2
11.422211 -10.926183 -0.50057971 3
13.218705 -10.872328 -0.50695568 5.3333335
13.534725 -10.767209 -0.47313336 1.75
14.760345 -10.815109 -0.49763817 5.5
15.053972 -10.687411 -0.46272141 4.3333335
10.62224 -10.659815 -0.24457259 23.25
80.291794 -5.2597661 0.11325575 28
7.2426114 -9.9687281 -0.25192216 9.6000004
7.9872031 -9.974494 -0.23898345 10.75
7.1970758 -8.8914661 -0.19610965 2
7.7403688 -3.8475137 -0.17987651 2.2142856
20.794645 -2.8936961 -0.54336083 4
20.812271 -2.8467896 -0.39673704 4
32.300873 -2.0712769 -0.23750362 2
-6.8948393 -4.1757417 -0.31526503 3.5
-4.0751114 -4.0487208 -0.48511982 2.5
-2.1270638 -3.9784627 -0.47654861 3.6666667
6.9043598 -3.2149248 -0.22278841 12.444445
7.7374473 -3.7976418 -0.28372732 3
8.5303507 -3.1786275 -0.46986288 6.2857141
9.3044872 -3.1647477 -0.32590804 10.333333
9.8536301 -3.1175256 -0.33552778 6
10.80937 -3.1809163 -0.45214841 4.8571429
13.226306 -3.0080085 -0.49455476 4.0999999
14.084995 -3.0386374 -0.35836396 2.3333333
14.695009 -3.0365169 -0.36372232 1
16.306946 -2.8527455 -0.50691581 2.3636363
18.253883 -2.7920735 -0.49088284 3.9000001
20.74678 -2.608546 -0.5055998 12
20.931152 -2.4783156 -0.62474346 1
23.504246 -2.3351095 -0.40238172 1
25.928028 -2.3172252 -0.47101504 4.6666665
28.388523 -2.2208939 -0.36688736 4
-8.6761904 -4.2574248 -0.77090746 3
31.263206 1.2547457 -0.67309362 3
6.0438528 0.47948337 -0.73033947 15
6.3038464 0.4718762 -0.25521633 17.285715
1.0018058 1.271493 -0.26236796 12
3.2023506 1.4079897 -0.51473951 11.666667
3.8576179 1.3796844 -0.28279901 18.571428
4.7643561 1.4927621 -0.20763804 20.799999
5.5497541 1.5893669 -0.36196354 18.6
6.5941935 1.6227765 -0.31026167 16.555555
7.1154084 1.6944404 -0.37069893 19.333334
8.0460472 1.7714314 -0.22336295 33.962963
9.029418 1.8026214 -0.2125333 53.666668
9.4422903 1.8602393 -0.18697484 23.761906
10.39321 1.9411111 -0.27949813 15.333333
11.275067 1.9005098 -0.25425458 14.714286
12.171965 2.0346787 -0.20705307 33.63158
12.856384 1.889879 -0.30930915 14.052631
13.566791 1.8405049 -0.37198633 13.571428
14.43294 1.9626729 -0.46386942 10.666667
15.013 1.9682107 -0.2704564 11.5
16.404957 1.9313972 -0.38229147 6.5
16.753914 2.0098529 -0.33961895 7.5714288
17.715796 1.9429739 -0.73648489 10
19.060467 1.9682188 -0.71213967 3
19.712173 2.0397623 -0.68890053 2
0.29519272 1.4711862 -0.61282367 14
0.72784853 1.3232369 -0.4455592 15.5
1.6405735 1.479167 -0.40914327 17.333334
2.3327942 1.4503658 -0.3468394 21.5
3.4287891 1.5664961 -0.30832744 16.25
4.1207786 1.6125178 -0.21736275 18.25
4.8564034 1.7659273 -0.29863745 16.857143
5.6211562 1.7838228 -0.32145387 17.65
6.4050016 1.8573766 -0.26327562 14.363636
7.2732525 1.9036424 -0.29688191 12.75
7.8057356 1.8844473 -0.27624545 21.333334
8.8518295 1.9890022 -0.15379871 25.354166
9.5208492 2.0365608 -0.1655407 8.272727
10.418518 2.1612444 -0.18321447 8.7777777
11.142086 2.1872563 -0.26548055 12.625
12.56198 2.1698878 -0.70428205 11
13.776767 2.3699121 -0.056108136 9
16.798241 5.5384979 -0.093668848 3
-2.789237 4.8708138 -0.22110966 17
3.7323036 5.1244512 -0.26379296 11.555555
4.2397923 5.1871171 -0.25533831 1.8
12.156738 6.1039667 -0.11473827 45
19.025366 6.2617497 -0.10408013 1
-8.5727072 4.7826152 -0.28803089 113
-6.8150797 5.4224277 -0.27813956 96
-2.0125093 5.5736508 -0.22468808 3
-1.1350813 5.6487861 -0.21601354 3
0.41110706 5.5535412 -0.3098762 2.6666667
1.081387 5.5870929 -0.27889499 5
2.0351739 5.7885199 -0.24423574 1
4.2874494 6.1414671 -0.13957457 2
5.2560587 6.0293384 -0.19474207 8.272727
6.2530375 6.1134157 -0.28474319 36.384617
7.7929878 6.0908537 -0.34848276 1.8823529
8.5970278 6.0592384 -0.25990686 9.3684206
10.027384 6.264101 -0.14458406 61.5
4.2300596 6.6508274 -0.1787395 0
5.3696337 7.1108284 -0.13441353 2
6.3658681 7.0496159 -0.33514076 5.1666665
7.4615469 7.0827436 -0.26601326 6.3333335
5.2823048 7.3351378 -0.32037356 2.25
6.3496399 7.3900003 -0.21833818 1
6.6492772 7.6732721 -0.49106833 14
6.2061806 8.7952795 -0.41205251 12
2.0349422 8.5864258 -0.42411867 11
6.1187601 9.2252731 -0.37773204 11
6.3170605 9.109417 -0.42425424 12
0.99239063 9.8676558 -0.34640655 15
8.2651415 10.56676 -0.28871593 9
5.8523793 10.664052 -0.3105301 15
8.1423264 11.988793 -0.25963169 11
-0.34067917 11.63177 -0.24034587 9
58.685574 -40.679394 1.3207445 39
75.047417 -39.178207 1.4739107 30
75.553619 -29.447245 1.3028368 33
75.254128 -22.636496 0.76920998 28
75.621178 -19.646458 1.1319106 35
19.675371 -23.763334 0.89814866 9
17.207541 -21.100861 0.57951307 10.5
20.980896 -20.737722 0.3971954 7
15.915712 -19.636721 0.68694603 8.75
21.880167 -19.4965 0.66226184 8
22.311146 -19.440241 0.75899637 10.666667
15.232548 -19.056782 0.33484516 8
29.666233 -15.927396 0.84206939 6
12.767628 -16.918093 0.33748251 10
27.641003 -13.428176 0.66871047 4.6666665
81.318886 -6.855195 0.56276363 28
81.595596 -5.8346829 0.97482753 33
10.624248 -10.671545 0.47190303 25.571428
7.255353 -9.9989395 0.38472119 10.25
7.9883471 -10.003366 0.38811928 10.25
7.1910505 -8.9072208 0.23450606 2
7.7415972 -3.843215 0.2150169 3.5999999
22.821808 -2.8545918 0.5267905 3.3333333
32.821247 -2.2796996 0.82509297 4.5
-7.0683479 -4.2124071 0.43665054 3
-4.1575413 -4.0620785 0.34591603 3.6666667
-2.2072887 -3.9981318 0.19339412 4.5
6.9183083 -3.2086451 0.23635365 10.363636
7.7427535 -3.6279969 0.77234399 4
-9.2347498 -4.2551847 -0.049125161 4
6.3053207 0.46041709 0.14162497 25.818182
9.4506187 1.9091678 0.00082772318 8.75
11.108916 1.9972284 -0.017675703 1
12.146246 2.0506308 0.23412198 34.23077
15.062046 2.33411 0.041834388 0
16.102051 1.9332597 0.01483266 3
0.79612684 1.7332404 -0.078675672 6
5.3449554 1.9911647 -0.011186711 3
9.0091839 2.0585155 -0.028624374 8.333333
9.3951416 2.1003568 -0.00510043 4.4000001
10.40779 2.2985878 -0.018752899 2.5
11.193615 2.2496696 -0.021055795 12
13.619485 2.4988146 -0.0096074333 3
16.674799 5.5585332 0.31760186 9.7142859
23.028313 6.0008388 0.35819775 3
30.875256 6.1315379 0.58028674 2.3333333
31.685581 6.7742767 0.59772694 3
-11.601169 4.343411 0.041924026 3
-9.5261431 4.5049901 0.13722003 4
-2.8208933 4.8923569 0.07377255 12.857142
3.7723346 5.0614104 0.13677855 12.454545
4.3012085 5.070281 0.041036207 1
10.228893 5.2813754 0.13975091 15.928572
11.607415 6.02806 0.16058847 0.66666669
12.130886 6.1110644 -0.075019956 42
16.640141 5.7026176 0.54742301 2.3333333
19.006599 6.2594457 0.14736982 1.6
-9.9766474 4.714869 0.41546428 3
-8.8191347 4.697577 0.1290504 11.833333
-8.5727339 4.8473344 0.22627081 5
-6.8327894 5.3610229 -0.18308641 58
-2.0884733 5.5751362 0.085241273 4.3333335
-1.4045448 5.6178498 0.11019707 1
0.43013287 5.7118249 0.10785292 1.2
1.0435987 5.81358 -0.0049126921 3.25
1.9566989 5.7621608 0.085767284 0.60000002
4.3546591 6.1411991 0.10449894 24.25
5.231245 6.1345706 0.097337395 5.6428571
6.202034 6.1028209 -0.075900413 13.333333
7.1411486 6.4523435 0.25824136 0
7.7613482 6.3317103 0.007794817 9.25
8.6497364 6.0843806 0.022383314 5.375
9.9741344 6.442924 0.032873686 10.916667
11.124168 6.1924987 0.16120894 3.5
11.357589 6.1677279 0.052824032 4.5
12.598307 6.9324498 0.23356839 3
15.066067 6.4967432 0.14761724 0.66666669
15.497998 6.7004671 0.21314265 0
17.76421 7.3131166 0.21220024 1
33.103748 8.236392 0.40084147 3.5
-21.913841 4.8921118 0.44587877 10
-8.9865065 5.8939619 0.54515111 10
-8.6259279 5.6991167 0.32452095 9
-2.6176529 6.4828811 0.34675992 1
-1.186573 6.1949925 0.039710488 1
-0.065104485 6.5383673 0.2755366 1
0.25023937 6.6677842 0.45166945 1
4.1930637 6.6802382 0.14213273 0.60000002
5.3271284 6.9317698 0.11582313 0.14285715
6.1329045 6.7632227 0.037623454 4
7.0240788 7.0937276 0.16298713 5
7.7483592 7.1562462 0.28569776 4.5
9.5646324 7.460959 0.12072201 5.5
9.7253075 7.2565565 0.21482839 20.166666
12.524721 6.9750037 0.36901194 3
15.322322 7.3315282 0.49697065 2
17.712839 7.7951517 0.19293059 1
-21.611759 5.4024754 0.079160735 10
-2.3887215 6.7050452 0.34117699 2
3.8835573 7.4899249 0.2014121 0
5.2301207 7.3036938 0.11136065 0.25
-9.4778814 8.2606983 0.32911366 1
-9.528882 8.5877132 -0.25014153 2
5.1551366 11.981211 -0.21008115 10
5.5470238 12.161628 -0.21040538 10
8.0196686 12.857927 -0.20559597 5
4.6855545 15.135792 0.27446097 10
7.9533086 15.951148 -0.071052253 14
9.7838182 15.719532 0.39319164 4
10.22117 16.017157 0.17506279 7.75
-4.2050505 16.140633 0.020963859 13
-3.9567709 16.268642 0.25536436 13
-3.8895941 16.297043 0.13678099 13
75.11599 -39.093163 2.1491017 33
75.451523 -29.438507 1.7284169 28
75.548759 -25.924795 1.6598258 28
21.653198 -19.60988 1.3543838 9
22.360765 -19.608002 1.3749431 6
15.705339 -19.553282 1.3890964 7.5
27.789268 -13.45001 1.2904254 3
10.629274 -10.675694 1.3149014 25
7.2370362 -10.050096 1.2081734 12
7.981904 -10.015295 1.2023336 14
7.7388759 -3.8474298 1.1751204 3
-8.30194 -4.2524972 0.9722032 2
1.0158572 -3.8540487 1.0624542 2
4.1358433 -3.7548451 1.114638 9
12.100693 2.0885417 1.0598648 0
19.743549 2.3117776 1.1183966 49.333332
10.164373 5.1936803 1.3163291 18
16.730947 5.4414234 1.1544989 6
23.026684 5.9445944 1.0849172 3.5
3.5855331 4.8333521 0.91804236 17
10.177461 5.2805552 1.1134979 7
-21.061905 4.7542415 0.6079517 9
-20.778599 5.3674407 0.94122171 9
0.083053589 6.8923059 0.71405184 1
24.669918 11.995669 0.72566497 2
7.3401065 15.252778 0.62890577 13
8.225152 15.213428 0.63021797 11
4.0419517 15.239605 0.64318061 13
5.7984114 15.589668 1.008787 4
7.6967182 15.457154 0.63845384 15
13.238064 16.51721 0.75607455 6
-4.1505709 16.186737 0.85037255 15
-6.8418484 17.928429 0.98483318 4.5
58.705215 -40.679806 2.8300061 32
75.120308 -39.053722 3.0487666 34.5
74.948364 -27.513845 2.5185614 28
75.303085 -26.046572 2.492835 28
76.207222 -24.256006 2.4757075 28
15.692056 -19.523272 2.0642893 7
27.86507 -13.493276 2.266679 3
16.606888 3.1770225 2.2984025 6
20.975807 4.0692339 2.3847787 6
26.875305 4.4381275 2.3539805 5
-5.5245209 3.0726686 1.6206977 5
-5.778965 3.6945155 1.6562529 14
16.59272 5.6025391 1.7226778 12
20.101303 5.3589129 2.2910895 5
28.027027 6.2737741 1.6880684 4
28.791851 5.8273711 1.7496204 2
-2.8453035 4.8311305 2.0841136 3
2.9302306 4.8313355 1.8209183 7
3.7154083 4.7470393 1.6541888 12.5
21.380325 9.6260242 1.8800123 6
21.791399 9.5142412 1.9174935 4
-18.979473 7.5532541 1.3639083 11
-18.378567 8.3109503 1.662985 11.5
-18.202255 9.0216017 1.6560539 7.5
-18.155075 9.8766823 1.3274993 11
-4.3892164 16.146265 1.3353028 6
5.8020754 18.843483 1.99124 5
39.021126 24.132534 2.0699587 7
-2.0468187 26.343031 1.1605661 7
58.82 -42.294617 3.6559167 32
75.129486 -38.61602 4.1597557 40
76.223351 -26.406166 3.7993197 37
77.032951 -24.538231 3.7793715 37
15.383299 -21.443768 3.1723003 24
18.001472 -20.919296 3.2348104 12
20.9328 -19.676571 3.2681699 12
21.782192 -19.634344 3.3250437 13
79.462006 -8.3847923 3.486882 36
77.513474 4.5892372 3.1777956 34
18.995354 1.8333302 2.8706636 3
23.831348 1.7844489 2.8702142 4
17.846329 2.0404968 2.5656211 5
23.082489 2.3252561 2.7329602 6
-2.9056072 1.5531569 2.9821656 8
-2.6951914 1.1380396 2.9236643 14
21.342037 3.4164484 2.4302216 6
22.464098 3.2357166 2.632417 4
27.764977 5.5586872 2.4816573 6
16.719343 5.501688 2.5654058 7
-5.3555202 6.5831285 2.5864584 11
1.4404569 7.6986628 2.5795209 8
16.893242 8.1596279 3.0005441 3
20.136391 8.8559999 2.5639362 6
1.4472003 8.1129713 2.6527512 6
20.841019 10.203787 2.7989933 2
-4.5635862 10.783618 2.8058143 14
3.8196225 13.167636 2.2638433 4
0.31818771 13.436748 2.5611944 6
3.1950045 13.604965 2.3655844 10
-8.6821203 13.691274 2.3546367 3
11.085238 16.151897 2.6918182 11
11.373822 15.858059 2.6544244 4
12.227946 15.896335 2.6979711 7
18.797279 20.545729 2.5319757 7
58.180901 -40.842758 4.7007813 28
11.128843 -17.077616 3.4829457 3
-1.8948164 7.1515489 3.1616201 5
-19.159992 8.5604267 3.2368734 12
-6.9629049 11.606526 3.215271 7
0.87983036 12.35465 3.5783844 9
2.3305497 13.212206 3.5859759 10
3.9560022 13.202832 3.4298327 2
4.8539176 13.333149 3.3941333 7
5.6656642 13.047134 3.2768536 4
6.2516465 13.498237 3.3610499 11
7.0171976 13.3847 3.3086236 10
8.0057344 13.837444 3.408278 3
-3.7102699 15.548623 3.2419102 7
6.2146902 19.203556 3.1569574 10
17.066628 19.405466 3.5653243 8
6.7303638 20.13522 3.3043489 3
13.478712 27.928925 3.0420976 17
21.286091 30.226835 3.6032572 15
-46.040535 28.534258 2.7884574 28
75.133614 -39.197254 5.537251 28
78.061836 -25.983633 5.1698713 28
82.957474 -24.062185 5.4028668 28
83.670395 -19.180426 5.2914262 28
9.893445 -16.945286 4.9112306 1
79.271858 -9.5866508 4.7536774 28
80.828697 -7.0119534 4.7956805 28
-1.7847567 12.789351 4.0679412 4
-0.97093487 12.918842 3.9636517 2
2.3133783 13.975049 3.760179 2
11.902405 15.408486 3.9257038 6
12.485969 15.398008 3.963201 2
9.3164816 16.741169 4.1491237 13
80.363396 24.359837 4.4855742 28
21.719807 22.056171 4.3759317 5
8.4492445 22.421576 3.6808679 13
-0.57414436 35.416248 3.8430951 9
-32.551147 34.395805 3.5618434 18
14.839113 -26.420742 5.4595442 17
15.664 -25.817766 5.3857946 16
103.9795 2.3412633 6.1253095 28
70.511032 8.3403273 5.3631229 28
15.935078 17.400581 4.763617 4
16.579521 17.394482 4.8371515 5
-46.100121 28.353447 4.2246113 28
18.224028 19.674938 5.552494 7
-32.475712 30.666351 5.523212 28
76.517006 -40.316471 7.5220366 28
-21.849056 45.376881 5.765008 28
58.487778 -34.698128 8.3498545 28
-46.039055 27.849464 6.7206249 28
58.619648 -41.428886 8.9718618 28
58.706841 -34.576221 12.015401 29
58.064468 -40.942039 12.723591 31
-94.179184 -63.081879 32.691124 28
37.790382 -16.694601 -0.76035672 5
38.060753 -16.445358 -0.57566762 5
22.492222 -16.457317 -0.65742874 5
34.888226 -15.14672 -0.85569012 4
38.018242 -14.234222 -0.76773232 5
12.897092 -15.827001 -0.58431262 7
14.095284 -15.434752 -0.67667937 11
18.344574 -15.039877 -0.84478867 3
21.830036 -15.374867 -0.79352963 5
11.634499 -15.400787 -0.56390965 6
18.671711 -14.647333 -0.78801364 4
34.296356 -13.18394 -0.83131659 4
37.584835 -12.685078 -0.5801152 4
45.530659 -11.902347 -0.77077246 7
20.929714 -13.582737 -0.87647504 1
30.581841 -12.508143 -0.8554225 5
37.526653 -12.430633 -0.75825715 9
33.761513 -11.610691 -0.81193447 3
19.544437 -12.044839 -0.86858642 2
23.78672 -11.559759 -0.82905608 2
25.467583 -11.969705 -0.79008859 5
26.491074 -11.592947 -0.8241322 3
30.407234 -10.768632 -0.83918405 7
33.537346 -10.786543 -0.80445349 3
37.551193 -10.437213 -0.68018049 6.5
12.351404 -11.55024 -0.93476796 5
16.165592 -11.758428 -0.89966106 5
17.045298 -11.278765 -0.90712625 5
23.887117 -10.8236 -0.81906807 4
11.251459 -10.971633 -0.74414253 3
11.663174 -10.919045 -0.81144285 3
13.382006 -10.815066 -0.76609063 5.5
14.418257 -10.922178 -0.94078422 6
14.931486 -10.754633 -0.73189902 4.25
16.755678 -10.316715 -0.69689465 2
22.623596 -10.1885 -0.85186309 3
26.210796 -10.309758 -0.91232991 7
30.479309 -9.6297569 -0.83790767 4
33.007328 -9.2810631 -0.78842199 3
10.623482 -10.634549 -0.84829956 22
10.66631 -10.663869 -0.72144169 16
15.66011 -10.36776 -0.95003855 16
17.148991 -10.097135 -0.66467363 1.5
37.484985 -8.3971214 -0.60781509 8
7.2463961 -9.9867973 -0.84426421 8
8.0031433 -10.002706 -0.75824487 7.5
16.84338 -8.8515654 -0.91506743 2
21.276218 -8.8936024 -0.84690475 5
21.824493 -7.6589456 -1.0166065 6
16.356907 -7.9183946 -0.98908979 2
20.200165 -7.1832347 -1.0509981 4.5
21.948687 -7.3180404 -1.0156319 6
26.218048 -6.7565756 -0.87755591 4
8.318264 -7.4399843 -1.1138846 7
15.567057 -7.1535525 -1.0741186 2
17.623154 -5.5410028 -0.94652486 6
13.47944 -5.6784725 -1.0021881 8
13.968166 -4.9154663 -0.96152425 1
7.7407885 -3.8533783 -0.87628555 8
12.857183 -3.5474081 -0.93809903 1
18.229324 -3.0090213 -0.78140032 2
20.813038 -2.8969853 -0.72782171 5
-2.3667727 -3.9518309 -1.0311247 13
-0.93302536 -3.859396 -1.0491341 13
1.2553282 -3.8053885 -0.98819357 8
6.9177899 -3.1705537 -0.86151534 11
13.207844 -2.7906089 -0.88891315 0
16.173359 -3.0440173 -0.86276883 5
18.352806 -2.5782213 -0.78554475 5
20.952084 -2.4758952 -0.73638701 3
23.608929 -2.3348639 -0.7428093 4
-7.6475534 -3.6647267 -1.0469375 6
-6.0983267 -4.1363883 -1.0484451 12
-4.5504847 -4.0165548 -1.0345129 9
11.928832 -2.3239424 -0.93389481 0
12.314962 -1.9760818 -0.94397837 0
-7.6316519 -2.9657831 -1.0498648 6
-5.820466 -2.9696448 -1.0326245 3
-4.2296944 -2.5740447 -1.011809 3
23.65271 -0.66403276 -0.76179242 4
-2.1715746 -1.9254811 -1.0071168 5
-0.67902946 -1.5635495 -1.0063895 3
1.1634512 -1.2305918 -0.9553985 2
2.3206034 -0.96316284 -0.97474331 2
3.8052106 -0.70119458 -0.95137101 1
5.0929861 -0.37236124 -0.9535448 1
6.4341774 -0.15473759 -0.94486779 1
25.023674 1.0496765 -0.77609867 4
19.878151 1.9930747 -0.84944195 4
2.5281096 1.3340688 -0.98204046 15
4.041286 1.4043362 -0.95185131 10
7.8893161 1.3273053 -1.0022577 1
10.922357 1.7417371 -0.90197563 2
16.43034 1.8715186 -0.89672601 8
17.392632 1.8968494 -0.86050177 7
18.742035 1.9369538 -0.86796182 5
1.492939 1.301474 -0.95371628 8
64.832672 -34.150002 0.036493354 28
18.922979 -22.324226 0.1312688 10
19.681862 -22.560228 -0.15833959 6
70.847549 -18.199308 -0.022142058 28
20.991016 -20.799248 0.11795696 32
47.520893 -17.461971 -0.29337901 9
15.669518 -19.45496 0.23361707 8
21.477312 -19.02029 0.23588145 5
14.262484 -16.94046 -0.11177889 4
13.179185 -16.655819 -0.26108435 9.5
13.532518 -16.530701 -0.10837001 4
11.676585 -15.988301 -0.0074861702 9.5
12.19257 -15.969323 -0.27709091 9.8000002
13.082267 -15.840665 -0.48986235 7
13.787504 -15.690373 -0.44217286 6.5
14.537471 -15.692187 -0.49696732 11
15.898962 -15.500519 -0.50759757 5
37.597954 -12.682431 -0.40083343 5
26.048157 -11.623992 -0.45319748 20
11.326047 -10.924617 -0.50881469 6.25
11.660065 -10.917706 -0.54389888 1.6666666
13.392561 -10.803274 -0.50471395 5
14.947235 -10.750531 -0.49648654 4.4285712
80.399261 -5.2572351 -0.069038637 28
8.0284243 -10.786551 -0.22015822 10
10.527762 -10.678596 -0.012625804 41.333332
10.646418 -10.663007 -0.31273597 19.888889
17.083309 -10.088237 -0.47566113 6
37.516926 -8.3416815 -0.35436776 8
7.2512131 -9.9915266 -0.24571913 11.5
7.9905877 -9.9944363 -0.23741117 8.25
7.1785054 -8.1704493 -0.35908645 8.666667
7.7445798 -3.8619013 -0.18520924 7.2142859
18.18034 -2.9823637 -0.48380718 4.75
19.436134 -2.9361031 -0.28159651 1
20.872261 -2.8517284 -0.49964857 3.5999999
21.700161 -2.8761208 -0.20458306 1
23.251095 -2.5793405 -0.47994864 8
25.866169 -2.3846076 -0.52930176 9
25.986359 -2.310405 -0.29354322 4
28.440964 -2.207864 -0.41586924 2.3333333
32.230843 -2.0716717 -0.15447503 3
32.904915 -2.3799345 -0.018524995 2
38.390839 -2.0194979 -0.5387696 4
6.9206429 -3.1971707 -0.23452915 10.176471
8.0325909 -3.4465759 -0.49155739 5.5
8.7494583 -3.2327495 -0.46553633 4
9.5896702 -3.1417944 -0.37915263 8
10.568845 -3.2009981 -0.49059373 3.8
11.063527 -3.1025784 -0.44913968 4.3333335
11.873253 -3.1386497 -0.39001474 2
13.436737 -2.8761098 -0.52513582 2.8333333
14.491217 -2.985811 -0.3814984 3
15.161831 -2.9065087 -0.38377061 2
16.14114 -2.9275107 -0.49984252 3.5454545
16.451771 -2.7461238 -0.4337005 1.5
17.821533 -2.8381641 -0.33687621 2
18.337646 -2.6890399 -0.49759519 2.25
20.8423 -2.5926633 -0.50591046 6.6666665
23.305304 -2.4634805 -0.56399554 8
28.54377 -1.9966626 -0.67925513 5
30.56213 -1.3087175 -0.64108777 2
35.337822 -1.1529624 -0.64279783 3
37.837318 -0.79544109 -0.54772437 4
-7.9481497 -4.2136335 -0.58460677 4
-7.5276175 -4.2120972 -0.72590739 3
27.93325 -0.83746356 -0.6727404 3
28.071915 0.11303531 -0.69301283 3
33.902103 0.28059378 -0.63024372 3
42.429321 0.95644784 -0.47767884 5
33.741989 1.1162528 -0.64122236 3
23.251135 1.0584844 -0.76914012 4
27.494755 1.1709106 -0.69094467 3
33.223888 1.9547284 -0.64408708 3
35.345543 2.1566312 -0.55177999 3
7.1987543 0.46123213 -0.46871179 14.4
7.3188143 0.45131052 -0.27172527 26.25
27.286121 2.2073054 -0.70472682 2
32.722904 2.7761676 -0.64786929 2
34.97551 2.6634586 -0.55442613 3
3.757688 1.3551631 -0.41924697 12.285714
4.548862 1.4635069 -0.30691105 18
5.1010437 1.5416512 -0.25071681 15.4
5.8481312 1.5831766 -0.34226236 24.666666
6.9395151 1.658895 -0.35087377 17.666666
7.708478 1.7531855 -0.24603786 18.666666
8.2929068 1.7913592 -0.26164249 14.066667
9.3549509 1.846209 -0.1777036 52.302326
9.862092 1.9184022 -0.21579909 42.657894
10.755882 1.9293427 -0.28244928 23.4
11.387132 1.913883 -0.21137241 11.235294
12.369666 2.0330241 -0.22315991 19.280703
13.20065 1.8559825 -0.31331435 14.789474
13.949066 1.962893 -0.30081394 10.642858
14.784227 2.0388155 -0.23055898 10.875
15.299027 1.9812443 -0.33489928 6.8000002
16.508307 1.9872465 -0.20961109 10.888889
17.084448 1.9009445 -0.37496758 6.4000001
17.942593 1.9480085 -0.69954973 7
18.844749 2.0924101 -0.66430593 7
19.554935 1.9972432 -0.67771155 4.5
-0.24478054 1.2649881 -0.50477731 15
0.15804958 1.394129 -0.60493398 11
1.1707258 1.3096049 -0.38432729 15.75
1.7433701 1.4252894 -0.48016304 13.5
3.067215 1.4025965 -0.78301299 17
3.4111791 1.4816854 -0.74800026 19
4.5599575 1.8006685 -0.1540482 16.5
5.2745018 1.7319191 -0.31337067 17.200001
5.874052 1.7434514 -0.37010401 11.4
6.8334975 1.8634424 -0.29210758 17.368422
7.5068445 1.8904276 -0.2998001 19.086956
8.5796614 1.9426482 -0.24120034 15.88
9.168582 2.0309832 -0.1569006 34.275002
9.937645 2.0887759 -0.1607613 27.862068
10.583478 2.2150869 -0.24179536 10.69697
11.282891 2.1047242 -0.34193215 1
12.483396 2.3752325 -0.12172808 2
12.889164 2.307508 -0.51536179 10
13.720402 2.4028506 -0.063836657 9
14.909794 2.4172609 -0.098718859 0
69.433372 7.6896229 -0.27473933 28
16.62159 5.7092614 -0.21233563 10.5
3.5949059 4.9353309 -0.20836239 11.333333
4.0708318 5.2422099 -0.32539791 4.4545455
10.247342 5.3131647 -0.28187338 12
11.426598 6.0885568 -0.21541238 22.666666
16.620468 5.762527 -0.26458985 4.5
-11.177007 4.3564711 -0.28742933 4
-8.6871862 4.6105132 -0.26884702 15
-2.0940256 5.5200968 -0.33790275 1.5
