# .PCD v0.7 - Point Cloud Data file format
VERSION 0.7
FIELDS x y z intensity
SIZE 4 4 4 4
TYPE F F F F
COUNT 1 1 1 1
WIDTH 1366
HEIGHT 1
VIEWPOINT 0 0 0 1 0 0 0
POINTS 1366
DATA ascii
29.412146 -7.3018122 1.822142 10
20.531982 -17.323162 1.6408955 45
20.214392 -15.174258 1.6473272 48
20.973221 -13.712935 1.5878693 12
30.404572 -1.7182217 1.8877265 9
20.591322 -12.766678 1.8216811 29.5
19.512417 -12.493006 1.614005 0
19.626099 -11.151172 1.7600058 0
19.675173 -10.779587 1.8042345 0
24.782888 -1.1207075 1.8293911 8
46.114059 -11.428122 1.9035994 4
46.06144 -10.969618 1.908191 6
28.369591 -17.986675 1.8373966 33
33.632793 -8.0852375 2.0969245 22
29.534576 -6.0985451 1.9632943 21
29.710989 -5.0135164 2.0965767 2
17.984501 -19.086077 1.8445154 39
19.466049 -14.436804 1.8845069 1
21.397835 -11.386393 1.9580358 14
21.438675 -11.217988 1.9910017 13
18.963734 -14.191978 2.0324135 1
20.778416 -11.645586 2.0008419 30
21.030718 -11.274467 2.0391064 12
21.27673 -9.2545366 1.8825451 20
21.792887 -8.8039837 1.9260449 7
21.46249 -8.7940369 1.9488353 9
23.442057 -3.8801184 2.0761712 2
79.332245 -20.671947 2.1909828 42
65.297661 -22.457607 2.2585976 18
36.207825 -18.59457 2.078557 22
33.615395 -7.5434427 2.1405807 1
33.079536 -6.551837 2.1807876 1
30.216986 -8.3159161 2.3387403 6
29.867887 -8.2306118 2.3116727 9
46.111664 -11.359735 2.4268026 5
38.101562 -9.8603191 2.4551301 5
38.146954 -8.9080124 2.5130749 15
29.265985 -7.2206583 2.4074619 9
18.520874 -19.191647 2.3430014 41
21.906439 -8.7521553 2.5523889 2
21.301998 -9.2546291 2.4832082 17
21.012165 -9.3857632 2.4844289 0
21.488705 -8.7978764 2.5788 7
65.155174 -23.15937 2.9824762 24
65.440071 -22.3298 2.9949675 16
36.329865 -18.409527 2.8288214 13
42.013092 -9.5082588 2.9240623 2
33.019955 -6.2357502 2.9738138 2
46.01619 -11.220646 3.3378465 11
37.136093 -8.7214508 3.286937 14
30.027132 -7.3850031 3.3245356 10
29.379395 -7.2951183 3.248981 7
22.980892 -5.7994127 3.2801974 0
38.219009 -9.8185415 3.3747053 6
38.143875 -9.1523113 3.4145904 6
35.893425 -5.3726959 3.4665039 2
79.298172 -20.880674 3.8016624 40
40.667038 -9.3956413 3.821856 15
38.337116 -6.3480024 3.7100446 2
33.628948 -8.0961924 3.850317 7
79.794876 -23.287861 3.834796 21
65.308342 -22.468113 3.9626036 18
36.405056 -18.609634 3.9236355 1
35.939465 -8.5032768 4.2949805 18
35.858376 -8.1561966 4.3277273 1
45.329666 -10.604538 4.567935 4
45.824326 -11.273865 4.6266079 8
38.204243 -9.8852205 4.6643229 3
38.104362 -9.4669161 4.6860256 8
79.247749 -21.086067 5.0928373 43
52.479061 -20.862007 5.8019123 6
52.406189 -20.144352 5.7703085 6
46.016342 -11.161045 6.5732088 8
62.504471 -18.642681 7.5825558 11
52.768841 -17.492659 8.2468939 13
59.006981 -15.56846 -1.1829679 7
65.4776 -23.216589 -1.0843863 11
79.509041 -20.587543 -0.61661392 21
65.176636 -23.039124 -0.82770413 18
59.024818 -15.558007 -0.77507204 7
38.199085 -9.1039276 -0.84047478 3
65.140182 -23.174723 -0.58490962 18
58.984283 -15.583849 -0.56995291 6
59.445267 -13.229576 -0.370193 6
54.029827 -12.778961 -0.57742041 4
53.895027 -12.815015 -0.39732486 4
38.136402 -9.1316624 -0.65060085 4
29.890285 -8.0526791 -0.6374523 3
19.321432 -19.206072 -0.60601503 5
17.462612 -13.041152 -0.55014938 1
16.866911 -12.566668 -0.66435629 0
65.166801 -23.173275 -0.34168893 27
59.008598 -15.575901 -0.26481187 13
59.229919 -14.474383 -0.36835349 6
59.363281 -14.216182 -0.16439027 6
53.684853 -12.832471 -0.21687257 9
44.762474 -19.058743 -0.25636244 2
45.02459 -17.469046 -0.25146419 2
41.951893 -17.816156 -0.24294144 4
42.385887 -17.08865 -0.25565279 1
42.399551 -16.25568 -0.25067574 1
41.604485 -14.887504 -0.21035463 5
42.02317 -14.108548 -0.22788227 1
41.18383 -14.195974 -0.29180485 2
39.017433 -18.149977 -0.29535741 1
39.023304 -17.779358 -0.29099929 1
37.659828 -18.380533 -0.30530471 1
39.006962 -15.678738 -0.27348113 1
37.691391 -17.993053 -0.30131215 1
37.759262 -17.613926 -0.30033821 1
37.839703 -16.845434 -0.29694569 1
38.880669 -14.378161 -0.26474482 1
37.886963 -16.218908 -0.29508805 1
37.764179 -15.689698 -0.28491795 1
40.667683 -9.6246767 -0.19593096 4
36.570278 -17.871298 -0.30568236 1
36.612606 -17.341757 -0.30107194 1
36.674278 -16.728224 -0.29851937 1
37.685635 -14.637675 -0.27876991 1
36.726452 -16.283607 -0.29847854 1
36.738178 -15.75192 -0.29644614 1
34.926331 -17.894066 -0.3269431 1
34.953014 -17.586199 -0.32344013 1
37.580322 -11.071381 -0.22070175 1
38.386963 -9.8509579 -0.19126117 4
37.886662 -9.7219067 -0.1705479 6
33.738987 -17.682322 -0.34652066 1
33.756603 -17.405184 -0.34253895 1
33.800201 -16.89505 -0.33811307 1
33.848709 -16.657042 -0.33944678 1
36.815289 -10.312627 -0.19386011 4
37.494621 -9.1828499 -0.2062878 7.5
36.126431 -11.09938 -0.22114491 2
30.814167 -21.626719 -0.2780903 2
33.840614 -15.145194 -0.33181375 1
30.567265 -21.41222 -0.37025291 0
35.329807 -11.324194 -0.24295628 2
30.362 -21.589825 -0.36734205 0
32.152809 -17.659058 -0.3246159 0
30.011719 -21.665285 -0.34631234 0
35.545551 -9.8129292 -0.21718127 1
35.902176 -8.7087936 -0.18425202 24
35.951672 -8.6069565 -0.27123702 3
32.327053 -16.160734 -0.31653142 0
32.334106 -15.873858 -0.3155604 0
35.397751 -9.3794231 -0.22058272 1
32.337921 -15.406727 -0.31544274 0
32.306866 -15.117818 -0.31327271 0
29.195015 -21.319897 -0.25803083 1
31.163414 -17.269409 -0.35538203 0
31.406784 -15.905541 -0.3633517 0
33.192001 -12.493246 -0.31509978 1
34.177937 -9.7946701 -0.21421874 3
28.773355 -21.393362 -0.37672651 0
31.401539 -15.647894 -0.36212397 0
33.549721 -11.004587 -0.26794046 1
34.124947 -9.3338795 -0.22608447 1
34.704247 -8.470582 -0.2115584 17
31.33744 -15.006775 -0.35768247 0
31.660011 -12.754059 -0.29752165 0
32.334568 -11.142942 -0.29179764 1
33.566105 -8.2229042 -0.2360943 19
33.630524 -8.1685019 -0.16931945 7
27.523653 -20.54718 -0.356161 1
30.815502 -13.378521 -0.33600396 0
30.685524 -13.074485 -0.33385718 0
31.364349 -12.160519 -0.29326665 0
32.070343 -10.635851 -0.29373944 1
26.908501 -21.050051 -0.37243265 0
31.161232 -11.778818 -0.29236877 0
27.397404 -18.980444 -0.35926175 2
27.548933 -18.795925 -0.35720634 2
28.010668 -17.728781 -0.31795394 17
30.520836 -12.760464 -0.33023459 0
26.466728 -20.772602 -0.30149484 1
27.14604 -19.245331 -0.36195594 2
28.177444 -16.969778 -0.2958346 20
30.214569 -12.554691 -0.30728734 1
32.395409 -8.0314798 -0.18510896 29
30.058851 -12.011395 -0.32324612 0
30.514833 -11.077744 -0.27391487 0
29.949888 -11.812352 -0.32508767 0
31.51993 -8.7564049 -0.23326492 3
25.776638 -20.204397 -0.38101143 3
29.777136 -11.625695 -0.32058364 0
30.186008 -10.651672 -0.27354884 0
28.903282 -12.991061 -0.302145 1
29.655479 -11.434586 -0.32249546 0
29.944027 -10.414999 -0.27044874 0
31.214817 -7.7432442 -0.27146471 14
27.409031 -15.327728 -0.39879256 1
28.777517 -12.811796 -0.2997539 1
28.710865 -12.690608 -0.3011831 1
29.484842 -11.215115 -0.32287878 0
28.567833 -12.52424 -0.29766798 1
29.262203 -10.97875 -0.32129174 1
29.734632 -10.185741 -0.27072936 0
27.248549 -14.823455 -0.38814193 0
29.098526 -10.821095 -0.31993496 1
30.226652 -8.2903471 -0.19034427 8
28.108103 -12.002932 -0.29385674 1
28.827848 -10.558453 -0.31985778 1
29.792034 -8.8272829 -0.24504513 2
29.870735 -8.192543 -0.17905408 9
28.599728 -10.361238 -0.31948316 0
30.056101 -7.530632 -0.22779804 6
23.945366 -20.222748 -0.31746823 36
26.046083 -15.58176 -0.40453798 1
27.838427 -11.743338 -0.29267162 1
29.377214 -8.5271626 -0.24315852 2
27.917648 -10.026596 -0.30191362 0
29.299496 -7.3219194 -0.2085222 5
27.126526 -11.214243 -0.28822911 1
29.10865 -7.0915403 -0.21603042 38
26.881317 -10.967987 -0.29995978 1
22.411274 -20.112568 -0.3561393 9
27.204653 -9.5871878 -0.30412078 0
22.823088 -19.025118 -0.38184255 1
26.865173 -9.4347134 -0.30323237 0
28.271442 -6.2625914 -0.24344087 1
26.541313 -9.1773357 -0.31745678 1
27.429466 -7.4655161 -0.24109828 2
28.568274 -5.2938051 -0.18464416 11
26.396721 -9.1327972 -0.31659669 1
27.829111 -6.0869322 -0.2430594 1
28.332527 -5.229763 -0.18269795 10
26.157038 -9.2275715 -0.2964443 1
25.99201 -9.0066853 -0.3165049 1
23.299572 -13.944169 -0.40864849 1
25.987637 -8.4275532 -0.23272681 2
20.627262 -19.151041 -0.39300823 3
24.360008 -10.288366 -0.28890181 1
24.144896 -10.25449 -0.29297066 0
26.386751 -5.3367567 -0.26716793 1
19.726898 -19.400131 -0.32036793 1
21.144621 -16.32773 -0.25011134 40
24.502251 -8.9036884 -0.29905754 0
22.398094 -13.162237 -0.32120419 1
23.540468 -10.349184 -0.28265256 1
23.278021 -10.373848 -0.2840482 1
24.476601 -8.112875 -0.24230456 0
26.380404 -3.5766869 -0.25192791 1
23.595062 -8.8837357 -0.30276448 0
22.547607 -10.535875 -0.28359604 1
23.448854 -8.8933849 -0.30317968 0
22.350744 -10.621257 -0.28019935 1
23.231081 -8.9294014 -0.30188203 0
23.570789 -7.9730778 -0.25848097 0
24.655748 -5.3165922 -0.25288481 3
20.647497 -13.85511 -0.22215915 4
23.13142 -8.0202494 -0.25853103 0
23.380234 -7.9972963 -0.25779301 0
23.73324 -6.6957674 -0.25600678 2
25.862371 -2.5104733 -0.23661774 1
17.846422 -19.345535 -0.36411488 0
22.434971 -9.065937 -0.30404228 0
21.110865 -11.372639 -0.26111847 17
22.77495 -8.0669613 -0.259655 0
23.465139 -6.4875345 -0.27612799 0
23.703091 -5.5985041 -0.23223537 4
22.208269 -8.1958752 -0.25956303 0
25.072685 -2.3354521 -0.24339461 1
17.001575 -18.998249 -0.44134504 1
21.672939 -8.7773247 -0.36568862 1
22.937185 -6.2001343 -0.24951881 15
23.265821 -5.5478086 -0.23895234 3
22.514147 -6.7781067 -0.26245213 2
24.506525 -2.3220167 -0.2434786 1
16.50787 -19.093328 -0.34656018 0
21.41136 -8.5877857 -0.24675298 1
22.174747 -6.7345181 -0.40725952 2
24.819002 -1.0765362 -0.18698829 8
21.8351 -6.5575724 -0.29544741 3
19.147076 -11.8939 -0.4106279 0
21.773815 -6.4516678 -0.19206524 8
24.315315 -0.46519089 -0.17295915 2
79.312241 -20.798018 0.031794608 40
67.481369 -20.783667 -0.11530852 10
65.173691 -23.020239 -0.097483814 28
58.888962 -16.422321 0.038659155 12
59.074486 -15.561391 0.040062368 51
59.233673 -14.457682 0.042498708 19
59.464378 -13.211353 0.043777704 13
53.834259 -12.862874 0.041457891 6.5
41.565453 -14.841504 -0.0031852722 6
40.591415 -9.5596161 -0.038138688 8.5
38.239594 -9.8189278 -0.0043751001 3.6666667
37.623661 -9.1917858 0.009426415 11
37.511055 -9.17239 0.012789786 10
37.137493 -8.7140074 0.06274876 11
35.903397 -8.6974773 0.059249341 3
35.988472 -8.5894318 -0.068698108 4
35.933552 -8.1581106 -0.034036279 2
34.743259 -8.4494686 -0.061183453 8
34.82143 -8.3370075 -0.015496254 18.333334
34.873203 -7.9575248 -0.079002321 1
34.942417 -7.7294445 -0.0080410838 0
34.195324 -8.1742992 0.10305452 1
33.561306 -8.2302189 0.015391946 14.5
33.729488 -8.100256 -0.10331142 39
33.448635 -7.6478052 -0.032953441 1
27.649397 -18.614647 -0.083749771 33
28.036404 -17.741385 -0.063755274 28
28.331997 -17.025223 -0.12931651 18
28.217182 -16.967236 0.013413012 9
32.403393 -7.972919 -0.086580753 8.5
32.35891 -7.6256676 -0.063319027 2
31.572041 -7.7997379 0.10261428 0
31.234547 -7.7700729 -0.14324892 13
30.179976 -8.279417 0.012606561 7
29.851665 -8.0608387 0.01477313 5.75
30.029152 -7.3206606 0.0064611435 12
23.930676 -20.22093 -0.12629199 52
29.976612 -7.2026463 0.064689487 1
29.502493 -7.2662487 0.019813657 15
23.243784 -20.100473 -0.11883515 50
29.314512 -7.4024086 -0.008007884 8.666667
29.136683 -7.0718088 0.021143615 7
29.551723 -4.867116 -0.091530859 24
29.725742 -4.6197481 -0.033410013 8
28.612804 -5.2975683 0.085053861 2
28.579472 -5.2727699 -0.050701678 7
28.297359 -5.212986 -0.014333904 10.5
27.317629 -5.6500874 -0.0090751052 2
27.264624 -5.6343775 -0.050904155 4.6666665
26.759081 -5.0999546 0.0030122995 4
21.663429 -15.872234 -0.093847454 6.3333335
21.784521 -15.723083 -0.061192989 12
21.104902 -16.313812 -0.028098285 3
21.167902 -16.116659 -0.01051569 21
20.515236 -17.264505 -0.11368805 22
19.196053 -19.270651 -0.2094878 46
20.620642 -15.530646 -0.12203854 14
27.239574 -1.3116188 0.030800283 1
18.556767 -19.303436 -0.0643332 59
26.858532 -1.3535166 -0.052253783 2
20.256557 -15.074574 -0.038210094 3
20.337364 -14.931309 -0.030552208 0
20.519566 -14.605592 -0.18216538 5
20.92444 -13.845747 -0.09339112 12
20.962713 -13.657005 -0.10663384 11.5
20.545546 -13.726828 -0.013525486 15.5
26.33987 -1.3760767 0.12350568 1
20.244648 -13.901875 -0.039262354 1.5
20.517029 -13.119643 -0.0011114478 0
20.912189 -12.421194 -0.1541397 5
20.566303 -12.510297 -0.11321205 0.5
20.701445 -12.333915 -0.18622661 1
21.282089 -11.164927 -0.065182745 0
20.834473 -11.535463 -0.04205513 15
21.023312 -11.196566 0.056405067 8
23.256065 -5.9260988 0.08298856 1
21.881266 -8.7852697 -0.059992194 7
22.960697 -6.1425724 -0.081216753 4
23.055763 -6.0200663 -0.0010464787 7
23.232294 -5.8382149 -0.039417624 2
21.559731 -8.7132587 -0.031145751 1
22.468197 -6.7194462 -0.031747758 3.6666667
22.117628 -6.7436867 -0.039964974 6.5
22.656876 -5.9194059 0.077950835 1
23.570677 -3.8651886 -0.013234079 13
24.808775 -1.0645599 0.02944231 11
24.86702 -1.0512457 -0.058053792 3
24.999481 -0.74089146 0.10643268 1
79.367592 -20.600025 0.35645878 41
65.302567 -22.480665 0.14793777 17
58.885857 -16.197855 0.24271348 13
59.223892 -14.360467 0.24808508 19
59.430061 -13.364235 0.25033 13
51.310635 -11.71896 0.16890725 7
36.160973 -18.512011 0.1821852 6.5
37.892467 -9.7742462 0.27302068 5.3333335
37.148624 -8.5295458 0.27938974 8.5
36.439369 -8.6702356 0.29322916 1
35.945114 -8.6510773 0.17938811 2
35.960419 -8.3218842 0.29900324 1
34.684109 -8.1541548 0.2418161 1
34.810337 -8.0597391 0.31606925 2
33.628281 -8.2555695 0.19330978 1
33.491554 -7.7836828 0.22482461 2
27.643419 -18.60873 0.19973522 35.333332
28.023678 -17.729015 0.21389455 14.333333
28.307562 -17.0207 0.17200822 18
27.819246 -17.839954 0.28827444 63
28.208834 -16.965281 0.22111428 16.666666
32.440216 -7.821929 0.14542979 5
30.141609 -8.2727451 0.24280396 8.25
29.874422 -8.1884632 0.33133972 6
29.851282 -8.027154 0.21444464 7.6666665
29.955404 -7.5480194 0.31822133 15
23.940363 -20.224827 0.1785894 69.666664
29.461206 -7.4656038 0.2648212 1
29.502266 -7.2567377 0.19919932 14
23.262157 -20.073874 0.19716913 62
29.323996 -7.4095812 0.3241612 18
29.335136 -6.9054708 0.19183958 0
29.12673 -7.1646433 0.29238915 10
30.383812 -1.6187878 0.37372229 1
28.582581 -5.1630764 0.18314603 0.5
28.340942 -4.9984236 0.18063167 0.5
27.263821 -5.5268097 0.20813745 10
21.678995 -16.076138 0.22878766 22.5
21.838146 -15.833763 0.12746781 20
26.829458 -5.1418734 0.23182389 9
21.685461 -15.946761 0.096336007 15.5
21.775705 -15.705346 0.2005654 15.333333
20.517366 -17.271559 0.19027057 27.200001
20.933409 -16.296686 0.18123257 29
19.194046 -19.273199 0.14237618 59.5
18.789591 -19.190159 0.17616671 63
20.34656 -15.385934 0.298493 2
20.375381 -15.362083 0.090767175 10
26.935324 -1.5193853 0.21105945 3
20.222412 -15.13213 0.18487164 44.25
20.916718 -13.821558 0.22355324 18
20.952826 -13.667602 0.17772952 18.5
19.843815 -15.337679 0.10405216 0
20.036879 -15.140284 0.22744352 1
20.536875 -13.721231 0.17640528 12.5
20.220062 -13.890741 0.25508565 6
20.727173 -12.773672 0.2529937 16.5
20.907227 -12.441599 0.19153878 6
21.396496 -11.301367 0.1992192 0.75
26.186775 -1.3376741 0.20865053 1
20.585508 -12.729006 0.19148612 30
21.044903 -11.67635 0.21376386 1
21.0917 -11.1658 0.18815887 2
20.323528 -12.611832 0.25233942 0
20.782625 -11.529883 0.20764756 12.6
21.039608 -11.164306 0.23503971 5.5
23.162991 -6.0612736 0.31953973 6
21.808802 -8.7495632 0.18379155 8
21.914515 -8.6736431 0.21852556 1.5
22.938282 -6.2168531 0.26527444 11
23.06794 -6.0615721 0.20365655 10.333333
23.245216 -5.8280973 0.13727087 0
21.546234 -8.904171 0.28697357 2
21.552948 -8.7191811 0.20132309 1.8
22.468046 -6.7232866 0.20448983 3.6666667
22.665733 -5.9636879 0.25589484 1
25.032528 -0.79361343 0.37299746 1
22.133869 -6.7574482 0.20232716 6
23.440517 -3.8352051 0.23172453 3
24.816143 -1.0619345 0.28948817 13
25.052338 -0.70603848 0.19417 1
19.030937 -9.8766603 0.18335658 0
65.232071 -22.751499 0.39049104 27
58.891212 -16.186699 0.44622183 12
59.04496 -15.459612 0.44920486 95
59.201195 -14.362447 0.45379061 38
59.444466 -13.115171 0.4585517 19
36.204918 -18.545378 0.39863932 8
38.198601 -9.8218117 0.53765547 4
37.89772 -9.7832203 0.44991904 5
38.072365 -9.1030512 0.53972954 16
37.164108 -8.5881748 0.49912766 12.5
36.277184 -8.7135162 0.46211344 1
35.953426 -8.3885612 0.54659164 24
35.527416 -8.5465469 0.46745276 1
34.710434 -8.4184875 0.54942703 1
34.858334 -8.0340023 0.47130734 3
33.606213 -8.0282936 0.55226457 21
33.541534 -7.8552275 0.44320148 7
27.642845 -18.610909 0.42671084 32.222221
28.020569 -17.735531 0.43508255 22.555555
28.331745 -17.029484 0.51578093 11
27.82843 -17.845436 0.4378522 34.5
28.212553 -16.967258 0.41894335 13.333333
32.444527 -7.8272753 0.55458075 6
31.216125 -7.7968283 0.49306101 9
30.156572 -8.2854185 0.46237987 5.6666665
29.878653 -8.2104073 0.47301796 7.5
29.983643 -7.5293512 0.477566 29.666666
30.093372 -7.1582603 0.4333632 1
23.943756 -20.2253 0.42495966 68.666664
29.488415 -7.407403 0.44013184 0
23.188494 -20.303709 0.48750579 112
29.30954 -7.4152288 0.48046416 44.333332
29.319424 -7.006813 0.37680447 3
29.150234 -7.0618076 0.49859732 42.666668
30.439182 -1.6555948 0.55627996 15
27.242956 -5.407382 0.42906368 13.333333
21.697252 -16.063694 0.44347394 16.533333
21.768105 -15.715611 0.44829103 13.666667
21.106079 -16.320852 0.4940106 11.666667
21.104023 -16.277342 0.40981016 15
19.37575 -19.463062 0.39855886 46
20.514698 -17.27733 0.41693696 28
20.91651 -16.311903 0.33039224 18.333334
19.188032 -19.27829 0.4318189 45
20.5895 -15.530486 0.46940988 13.833333
18.538975 -19.315948 0.38299036 60
20.388702 -15.381485 0.43515116 65.900002
19.982248 -15.415754 0.36670774 1
20.203651 -15.157613 0.39918882 57.333332
20.374458 -14.612985 0.49246383 1
20.911438 -13.82697 0.42612118 15.153846
20.956747 -13.672828 0.46101934 15.5
19.971664 -15.413557 0.34261173 2
20.064173 -14.87968 0.41540971 1
20.508686 -13.897312 0.42253739 59.799999
20.542904 -13.732787 0.42946175 18.666666
19.96965 -14.712366 0.53366518 0
20.210636 -14.017453 0.40351391 0.5
20.302685 -13.923341 0.42257369 18
20.775675 -12.86849 0.43027228 0.33333334
20.891262 -12.452812 0.48999992 39
21.396969 -11.313035 0.44452393 1
20.084021 -13.888437 0.48544762 0
20.56728 -12.735548 0.43586189 21.555555
20.715006 -12.501163 0.34983522 0
20.780037 -12.172432 0.5436182 0
21.029669 -11.687276 0.54523605 0
21.113132 -11.39698 0.40512928 19
21.240602 -11.204466 0.4508819 0.75
20.374937 -12.683295 0.37100697 0
20.801479 -11.5353 0.43350077 14
20.925629 -11.337142 0.5446375 0
21.047443 -11.166632 0.52902567 5.5
19.295389 -13.873898 0.38156268 1
21.571304 -8.8993359 0.46031159 33
21.77557 -8.7547512 0.37276977 8
21.912998 -8.6788349 0.46035045 3
22.958294 -6.1345911 0.43496001 15
23.126488 -6.0374899 0.52111095 9.5
23.228954 -5.8216791 0.40275544 0.5
21.574129 -8.7063389 0.42851588 1.6666666
22.471014 -6.7360001 0.52145761 5.5
22.683846 -6.1061306 0.49096045 1
25.107267 -0.71389961 0.46078596 1
22.142487 -6.7501583 0.49290514 6.3333335
23.399675 -3.8025637 0.47787738 4
23.607424 -3.8630495 0.40872303 2
24.814583 -1.07938 0.54947376 9
21.860382 -6.6940441 0.43598899 0
18.962559 -11.684305 0.37867847 0
18.75053 -11.662708 0.41249824 0
79.239311 -21.349304 0.67555737 25
65.213257 -22.89019 0.63276368 23
65.361526 -22.316261 0.87923872 18
59.042679 -16.555981 0.64771044 7
58.855644 -16.425789 0.8505652 12
58.972061 -15.827988 0.65103871 14
59.231064 -14.464256 0.7607258 10
59.404381 -13.592106 0.76606095 14
53.796097 -12.809842 0.82674277 8
53.596191 -12.735914 0.65237415 10
51.298439 -11.528257 0.8132025 7
40.672035 -9.4261303 0.7398268 6
36.190735 -18.52309 0.76208234 9
38.402718 -9.8569565 0.81008661 4
38.205059 -9.8431273 0.67233777 3.5
37.948334 -9.7038155 0.80553401 7
38.131748 -8.9115582 0.72373033 4
37.320713 -8.9450932 0.62958747 1
37.093063 -8.949213 0.75861299 66.5
35.916733 -8.7271194 0.70814306 40.5
35.950512 -8.4984608 0.71016258 15
34.738274 -8.5078173 0.62518096 94
34.742683 -8.2869034 0.7799207 10
33.586105 -8.2642622 0.62344837 85
33.607285 -8.08535 0.73270166 10.5
33.52359 -7.7558489 0.62573946 1
33.596977 -7.5823078 0.84903753 1
27.639854 -18.609196 0.64147055 40
28.003529 -17.735123 0.66627628 21.75
28.317196 -17.025843 0.61997706 18.333334
27.820019 -17.842459 0.63745487 48.5
28.186382 -16.961685 0.6685186 18
32.405006 -8.0245266 0.65522945 42
32.243954 -7.6231842 0.6231513 1
31.208622 -7.8031235 0.7303592 54
31.217812 -7.564065 0.81394452 17
30.230309 -8.3004475 0.75829172 6.25
29.872515 -8.2239809 0.72712111 8.3999996
23.955954 -20.443996 0.59302467 56
29.960331 -7.5522089 0.73739547 70.800003
23.944422 -20.22991 0.64153886 69.25
29.520884 -7.3640051 0.79561937 0
23.262424 -20.085922 0.56497836 110
29.262489 -7.3950453 0.66051555 63
29.284908 -7.2038078 0.85536861 2
29.124004 -7.0619259 0.73729479 41.333332
30.315191 -1.6450005 0.73791063 1
27.247978 -5.3049335 0.72948945 3
27.230652 -5.2596884 0.68673062 11
21.905012 -16.17692 0.65936702 8.5
22.042492 -16.068365 0.63604772 2
21.715696 -16.05171 0.62577641 13.75
21.966599 -15.989314 0.63916802 12
21.734356 -15.717318 0.62486684 17.555555
21.11142 -16.328783 0.62308216 5.7142859
21.426216 -15.630525 0.76755226 13
20.521198 -17.277388 0.63352174 26.875
19.178829 -19.285608 0.70431972 46.5
20.560024 -15.52886 0.57564837 9
18.786848 -19.19331 0.60478687 55
20.394102 -15.385775 0.6404857 82.875
26.817604 -1.5931816 0.89366776 3
20.048349 -15.418948 0.63580281 30
20.521198 -14.625164 0.61367577 126.5
20.518803 -14.610462 0.71103573 9
20.914881 -13.842774 0.65832591 14.555555
20.966324 -13.678686 0.64383459 13.142858
20.097889 -14.802284 0.64090532 1
20.609526 -13.881121 0.67506039 100.8
20.040108 -14.121464 0.56107605 0
20.332304 -13.846409 0.64288962 8.75
20.587549 -13.163822 0.6946038 1
20.918833 -12.458704 0.66572261 63.25
21.39023 -11.338617 0.63930357 2
26.258802 -1.1867714 0.63905799 1
20.570631 -12.761945 0.63703489 13
20.738405 -12.331397 0.59963542 2
20.957718 -11.554317 0.69960946 0
21.109732 -11.425749 0.68048149 74.666664
21.189896 -11.205862 0.68429101 1.3333334
20.80566 -11.56759 0.65871739 33
21.02718 -11.212778 0.69049853 3.5
21.840862 -8.8024302 0.7210958 7.75
21.917845 -8.6975946 0.59193522 3
22.938908 -6.2442436 0.74813032 95
23.219706 -5.8500471 0.72648668 1.2
21.568514 -8.7261963 0.70130652 3.8333333
22.490992 -6.6823063 0.63018268 2.5
23.609192 -3.8701553 0.61945164 3
25.110195 -0.66375923 0.81693131 2
21.970684 -6.8744755 0.70888025 100
22.141922 -6.7639484 0.65616739 6
22.277145 -6.5950613 0.60296804 5
23.511278 -3.8607998 0.75995159 10
24.835455 -1.0730925 0.6792689 6.5
18.043045 -9.78652 0.57691866 0
79.319984 -20.764656 1.0014217 57
65.272453 -22.480972 1.1215816 19
58.917084 -16.445942 1.0546691 6
58.971138 -15.591785 1.0595249 20
59.197853 -14.36549 1.0690298 48
59.430763 -13.243605 1.0785129 14
36.195549 -18.542805 0.90737748 13.5
38.225159 -9.8117399 0.89828032 6
37.949883 -9.8057928 0.98193634 4
38.118568 -9.2638464 0.90288436 8
37.87521 -9.7228718 1.0701206 9
37.27285 -8.909193 0.97942942 1
37.113602 -8.6378422 1.067724 24
30.877871 -21.555973 0.81150949 69
36.460316 -8.7765064 0.96294463 1
36.105545 -8.6384125 0.95722485 1
35.497719 -8.5614109 0.94498944 1
34.698849 -8.1400204 1.0124829 1
33.57341 -8.275198 0.90894622 12
33.550568 -7.959857 0.98729831 0
33.584743 -7.7647438 1.0287775 2.5
27.632685 -18.608786 0.87505591 35
27.99357 -17.728502 0.92242062 18
28.324087 -17.028452 0.82866526 22
32.483845 -8.0068951 0.9601779 0
28.165199 -16.959412 0.91939759 18
32.412903 -7.621069 0.96814096 0
31.99345 -7.63902 0.95803666 0
30.096256 -8.2900324 1.0132977 9
30.144241 -8.2765274 0.90073168 13
29.848532 -8.2206392 0.95264077 9.5
29.953285 -7.5455647 0.91738528 41
23.942327 -20.227346 0.89203179 75
29.496258 -7.2667942 0.91687721 10
29.345312 -7.2486134 1.0335171 7
29.672352 -5.0051174 1.1312854 2
30.364956 -1.6638508 1.0565157 11.5
30.266459 -1.626894 0.91979527 1
27.259501 -5.2976561 0.88075095 2
27.229841 -5.2614527 0.9465366 10
27.205734 -5.2262135 1.077593 8
21.822107 -15.716119 0.95394182 52
21.578499 -16.085798 0.85139775 2
21.830042 -15.686602 0.82421827 8
21.18837 -16.22031 0.98061997 6
20.521919 -17.279818 0.92640078 34
19.18021 -19.285641 1.0119824 62
20.186684 -15.119959 1.0333965 45
20.908958 -13.857649 0.94377708 14
20.964758 -13.6829 0.95053113 11.5
20.660069 -12.723742 0.94658285 15
21.396336 -11.282988 1.0126604 1
20.078674 -13.870284 0.81959391 0
21.199532 -11.205825 0.89757979 2
20.297604 -12.591473 0.85886371 0
20.674606 -11.612289 0.89174008 0
20.860973 -11.579823 1.0128098 30
21.001125 -11.244699 1.0310504 13
21.886724 -8.7839794 1.0253968 6
22.999498 -6.0270796 0.95534444 16.5
23.182648 -5.8985081 1.0187792 2
21.492723 -8.7549496 1.0331476 1
23.608461 -3.8707752 0.90028358 2
25.038223 -0.80690956 0.99066997 1
21.732893 -7.8357925 0.93805432 0
22.145531 -6.7783594 0.92785352 7.5
23.479338 -3.8685064 1.0409497 8.5
24.814045 -1.0750732 0.89571792 6
24.983969 -0.78194714 1.0797427 1
18.847273 -11.775093 0.95425504 0
79.324913 -20.805647 1.3251799 43
65.507896 -22.215309 1.369839 7
58.851273 -16.318138 1.2570524 11
59.086143 -15.462964 1.2658825 24
59.292427 -13.861739 1.2787225 11
53.88253 -12.9192 1.3515139 4
53.57621 -12.646346 1.1724955 12
36.251644 -18.579258 1.3114238 11
37.876026 -9.7318859 1.247098 4
38.114769 -9.2095737 1.2679645 8
34.747032 -8.2800207 1.3956071 16
35.20932 -7.2266369 1.2114058 1
33.57756 -7.9949408 1.3500772 17
27.639824 -18.615129 1.1153057 60
27.995844 -17.746597 1.1042998 15
28.309858 -17.026428 1.1158726 21
30.251066 -8.3145685 1.18945 3
29.875853 -8.2409382 1.1786258 10
30.040751 -7.3662062 1.2299993 19
29.453382 -7.271143 1.2145572 18
29.322241 -7.0729952 1.2209947 1
21.776363 -15.943404 1.1483486 6
21.156467 -16.291798 1.0728979 5
20.509026 -17.306593 1.2278118 8
26.866135 -1.5821495 1.2351372 3
20.142225 -15.152271 1.2709849 1
20.914984 -13.77651 1.2490668 15.5
20.380577 -13.951648 1.3125255 36
20.524187 -13.754711 1.3095312 16
20.07284 -14.089846 1.0921817 0
20.163898 -13.88277 1.094871 1
21.397011 -11.322293 1.2273095 0
20.649416 -12.717091 1.1382713 48
21.019949 -11.209203 1.2624897 6
25.688259 -1.1697931 1.2432714 1
19.303347 -14.223711 1.1705188 1
20.614096 -11.504278 1.2585826 0
21.772827 -8.7566605 1.2044568 7
23.088449 -6.0522804 1.1855388 8
21.528458 -8.6890583 1.2155573 1
22.040512 -6.7581205 1.1478684 6
23.565744 -3.8873396 1.3213565 12
24.990786 -0.79345608 1.256026 1
19.718729 -11.492994 1.3290141 0
58.886276 -16.432716 1.5621233 10
59.009911 -15.578569 1.5695736 16
59.222137 -14.47109 1.4789405 21
59.202644 -14.343535 1.6848664 21
59.437531 -13.232557 1.4921489 14
53.742462 -12.818632 1.5232117 9
36.138248 -18.514191 1.5949838 9
37.954285 -9.8058414 1.5156496 5
38.140362 -9.1953573 1.5437105 7
35.923637 -8.3489647 1.452894 3
33.565369 -8.0142708 1.6397183 15
27.660177 -18.613161 1.388073 57
28.02314 -17.744402 1.3709304 22
28.267117 -17.001152 1.3729732 14
31.240538 -7.5981321 1.5232496 5
30.094973 -8.2923021 1.4135201 6
29.859495 -8.2097006 1.4068148 8
30.01215 -7.2858248 1.4799968 9
23.95524 -20.264496 1.3305967 55
29.319378 -7.2230301 1.4518641 8
29.557789 -5.8315401 1.5672212 1
30.322153 -1.7690029 1.55046 2
29.98798 -1.5851841 1.5525956 1
20.505646 -17.295839 1.5470524 27
20.607939 -15.549798 1.4656498 11
20.911045 -13.863447 1.5573597 17
20.515503 -12.716335 1.4318197 17.5
21.361261 -11.144762 1.5746155 0
20.819159 -11.590424 1.5553173 28
21.004084 -11.218007 1.5948868 9
21.915653 -8.7025261 1.5156894 1
22.948809 -6.0391188 1.4196945 15
23.179476 -5.8738165 1.4327891 2
21.48634 -8.7424984 1.5256262 2
25.036221 -0.81901073 1.5203094 1
19.01606 -13.444023 1.5748467 1
23.397009 -3.8554611 1.6064413 2
65.20578 -22.887907 1.8494563 30
59.434639 -13.221288 1.6995842 14
38.006874 -9.7928638 1.877337 5
30.828444 -21.64385 1.6464548 11
34.742218 -8.2305222 1.7070627 14
27.63669 -18.617216 1.7729774 55
28.020399 -17.761538 1.7511487 15
28.334398 -17.052372 1.7719209 21
29.876471 -8.2410851 1.8046422 10
23.940798 -20.257143 1.6988168 54
29.322517 -7.072958 1.8893063 2
19.150551 -19.308245 1.6077697 55
20.421585 -13.928326 1.6583068 66
20.512732 -13.767467 1.6603465 25
20.637041 -12.710051 1.8148351 18
20.469963 -11.415027 1.6191378 0
23.123213 -6.0737553 1.8233991 6
24.81057 -1.0988102 1.8491545 2
19.572151 -11.14485 1.761672 0
19.58206 -10.624678 1.834516 0
59.047852 -16.446693 2.0770967 6
59.494957 -12.738 2.1200233 13
36.136124 -18.558634 2.1070991 13
33.613327 -8.0829897 2.1507044 16
19.542068 -19.370604 2.037601 60
21.391533 -11.24716 2.0142775 0
19.407955 -14.337942 1.8566947 1
20.808704 -11.581505 2.0194798 27
21.008694 -11.231308 2.069294 7
21.84094 -8.8200111 1.9464829 6
21.441374 -8.6104031 2.0053186 1
23.435394 -3.8466711 2.1054671 2
19.289675 -10.621054 1.868953 0
79.253159 -20.959795 2.2927151 42
65.477333 -22.215767 2.3465719 9
53.869171 -12.925338 2.4016955 4
33.658226 -7.7030182 2.1867719 1
33.052608 -6.4824438 2.2398715 1
30.070173 -8.2702122 2.4003758 9
29.840519 -8.2361069 2.3791535 10
22.110937 -6.7873726 2.3049345 6
19.500507 -11.110392 2.3393898 0
58.836472 -16.44047 2.6779914 11
37.929329 -9.8204346 2.4973848 5
38.118195 -8.9043427 2.5710087 5
37.446892 -8.762249 2.5046771 5
29.248486 -7.2031069 2.4780617 7
21.887899 -8.7158766 2.6074843 4
23.015701 -6.0423708 2.4209385 11
79.210342 -21.163332 2.9366448 41
79.561188 -20.043692 2.9533432 21
21.410852 -8.6213522 2.6698892 1
65.392136 -22.339813 3.0763454 24
53.553055 -12.65758 3.0818963 14
35.922127 -8.474968 3.1969247 19
34.727531 -8.2450457 3.0371726 20
32.661629 -6.447216 2.976048 2
22.457745 -6.7225122 3.1071799 2
22.244341 -6.6463661 3.137032 1
38.131241 -9.8029766 3.4407623 6
37.111763 -8.715559 3.3637881 13
29.862831 -8.2610321 3.2074792 7
30.009634 -7.4726858 3.4052463 5
29.449972 -7.2783136 3.3643947 15
23.149948 -6.0499458 3.2684939 1
58.842949 -16.328888 3.4947975 13
38.069427 -8.9962435 3.496151 7
79.327179 -20.595057 3.9143147 41
40.640808 -9.3900356 3.9010963 12
33.607914 -8.0923834 3.9548643 5
65.507683 -22.229292 4.0657644 9
41.841053 -9.6256561 4.0931225 7
36.171898 -18.576077 3.9232597 12
53.289474 -14.730838 4.2445035 6
53.603077 -12.751798 4.3113747 13
38.185436 -9.8990097 4.7662692 2
38.070518 -9.4772301 4.7856112 9
79.33239 -20.417202 5.2143025 43
52.795807 -20.00845 5.9225721 6
52.616482 -11.553496 5.9398828 6
53.907955 -12.838162 6.1407185 6
59.043701 -16.348284 7.044384 9
59.074104 -15.490808 7.0543308 9
59.750931 -14.488515 7.1892953 9
59.535591 -13.138917 7.170857 9
53.582298 -13.087073 8.6244631 20
59.762444 -13.056841 -2.2175226 7
59.278618 -15.566916 -2.1843903 6
59.316948 -15.556808 -0.74015486 7
16.494328 -11.982588 -0.78283179 0
59.902645 -14.569153 -0.54719996 6
59.219452 -15.714589 -0.53202462 6
53.788902 -12.671108 -0.52601314 4
29.941071 -8.1162014 -0.66465962 3
26.904419 -20.844286 -0.52188206 9
22.222486 -6.7735338 -0.62690401 2
59.55529 -15.323396 -0.33290339 13
59.437702 -14.274865 -0.22059751 9.5
59.586655 -13.324759 -0.11521375 6
59.688091 -13.075535 -0.32556987 13
59.006687 -16.081499 -0.32353956 6
59.102657 -15.572185 -0.11763877 13
54.032875 -12.866552 -0.18251872 4
53.862473 -12.795532 -0.35343087 4
46.176186 -11.413712 -0.11679304 3
44.210064 -17.478903 -0.19509232 2
44.256607 -16.628807 -0.19015455 2
41.533207 -18.080658 -0.20543373 1
41.643024 -17.347921 -0.20281851 1
43.025478 -10.106924 -0.14322782 4
41.734627 -14.999162 -0.19283575 2
40.712845 -18.005795 -0.26789445 2
40.784191 -17.308416 -0.26409733 2
40.847561 -15.899137 -0.25712603 2
40.738869 -14.435206 -0.24793351 2
40.909706 -9.4644947 -0.18235224 2
39.704002 -11.571575 -0.21086442 2
38.392853 -17.79439 -0.23789561 1
38.497425 -17.193102 -0.23704511 1
38.69368 -16.432119 -0.2415452 1
38.587059 -15.973926 -0.23312807 1
39.541161 -10.960344 -0.20935392 2
38.587887 -15.617559 -0.23171759 1
37.212311 -17.71487 -0.25105518 1
37.53479 -17.079908 -0.26332551 1
37.550808 -16.416763 -0.25891501 1
37.444458 -15.999104 -0.2501809 1
37.420849 -15.71909 -0.2476657 1
37.499954 -14.812662 -0.25139898 1
37.609528 -11.857121 -0.19562715 4
36.257553 -17.236029 -0.26016551 1
36.352322 -16.466877 -0.25950605 1
36.443554 -16.078249 -0.26330924 1
37.516418 -11.140065 -0.20034492 3
36.225597 -11.482703 -0.20775902 3
36.207672 -11.188639 -0.21203792 2
34.725372 -17.365683 -0.28757727 1
34.649632 -17.097473 -0.27829266 1
34.71492 -16.424732 -0.27721334 1
34.822155 -15.821333 -0.28294009 1
35.544624 -11.802931 -0.2372629 1
35.96524 -8.7322826 -0.17319667 4
34.493034 -13.570049 -0.27201849 1
33.600842 -16.427376 -0.30379248 1
33.711903 -15.574833 -0.31153691 1
34.798244 -8.5235415 -0.20550472 4
34.822121 -8.2146111 -0.29597688 8
31.880571 -21.911745 -0.34551805 1
32.008621 -21.757755 -0.34588355 1
33.49741 -13.913439 -0.3081407 1
31.3643 -21.908421 -0.30803573 0
33.116325 -12.885886 -0.29837739 1
32.08717 -16.789631 -0.28874677 0
32.170666 -15.357096 -0.29445708 0
32.889606 -10.516003 -0.24078822 1
30.226547 -21.588011 -0.32510394 1
31.671164 -13.313668 -0.28636569 0
32.023571 -10.881242 -0.28600663 1
29.829262 -21.685398 -0.30153847 0
32.488033 -8.0529957 -0.18709153 21
31.590546 -10.48941 -0.27391732 2
31.863541 -9.0360756 -0.24374121 4
29.168983 -21.403494 -0.37086743 1
29.313091 -21.16382 -0.36168009 1
31.615166 -8.9084911 -0.2363562 1
28.848982 -21.467852 -0.34926355 0
30.763258 -11.635674 -0.27878588 0
31.305428 -7.7752781 -0.21399975 31.5
30.502554 -11.322064 -0.27514243 0
28.340321 -21.378014 -0.2980653 1
30.026829 -12.370672 -0.31948912 0
30.241493 -10.994404 -0.27462125 0
29.841902 -12.159113 -0.31475878 0
29.786936 -11.879856 -0.32879215 1
29.917641 -10.645892 -0.27291501 0
29.695406 -10.418312 -0.27268952 0
30.320141 -8.3266726 -0.20195234 7
27.641693 -20.678772 -0.33045083 1
29.351038 -11.372293 -0.32685566 0
29.945484 -8.2316799 -0.19037569 11
30.112055 -7.5658703 -0.23745424 7
27.134491 -21.149235 -0.3452903 0
28.877163 -13.106209 -0.3234632 0
29.39909 -10.141638 -0.2724216 0
29.519833 -8.589467 -0.26295078 7
26.797373 -21.094221 -0.31053615 1
27.255518 -19.392891 -0.33687901 2
27.428623 -19.193298 -0.33570081 2
28.93988 -11.132612 -0.31092525 0
29.089979 -10.063534 -0.25808209 1
27.067196 -19.596613 -0.33971071 2
28.394657 -12.729481 -0.2976014 1
28.254955 -12.554667 -0.29821193 1
28.560921 -10.63879 -0.32477421 0
29.112438 -8.2383022 -0.2681337 2
29.351873 -7.4470348 -0.21383238 24
28.051012 -12.332103 -0.29813683 1
28.821928 -8.1352139 -0.26260555 2
29.191378 -7.1403561 -0.22739804 99
29.449162 -6.015358 -0.17180312 19
26.327862 -20.269863 -0.36103874 11
26.08906 -20.35972 -0.35390025 3
27.522133 -11.864956 -0.29645395 1
28.066513 -10.265438 -0.32520169 0
28.434126 -6.1021185 -0.27161527 1
28.681196 -5.3205967 -0.19079328 3
28.387388 -5.2551546 -0.18784559 11
25.853565 -15.575623 -0.40488231 1
26.894421 -9.6265326 -0.32493007 0
27.495808 -7.504838 -0.26161754 3
27.696098 -5.6072273 -0.28677738 1
27.354523 -5.7620039 -0.26825213 27
26.254221 -11.08679 -0.29859549 1
26.22237 -9.3668032 -0.32626837 0
25.710953 -10.868835 -0.30106127 1
26.029564 -8.5875902 -0.25138515 2
25.496492 -10.808523 -0.30086035 1
26.492113 -5.1823444 -0.29471904 1
25.895655 -5.1031322 -0.29319638 1
26.405233 -3.2265282 -0.27996188 2
25.647429 -4.8650866 -0.30851972 1
24.348232 -10.540913 -0.3138932 1
24.078135 -10.60297 -0.30363631 1
24.451904 -9.1128063 -0.31966853 0
24.513605 -8.2316933 -0.2654832 0
23.897423 -10.605033 -0.30371702 1
24.123344 -9.0516357 -0.32631606 0
24.902521 -5.0146818 -0.29311049 1
22.772751 -14.64807 -0.41549915 1
23.616116 -10.623481 -0.30336261 1
25.159351 -3.0564547 -0.2832703 1
23.194122 -10.659287 -0.30549794 1
23.413397 -10.631645 -0.30510378 1
23.538992 -9.1623144 -0.31611568 0
24.466927 -3.9935045 -0.22338843 3
22.974562 -10.691494 -0.30653805 1
23.25614 -9.132719 -0.32330287 0
23.594213 -8.0660734 -0.28414655 0
24.863783 -1.1157837 -0.18150461 14
22.403536 -12.220288 -0.30892956 9
22.738344 -10.739852 -0.30713195 1
23.161503 -8.1065454 -0.28476036 0
24.561775 -1.6988668 -0.28252602 1
22.492929 -10.834444 -0.30314451 1
23.364569 -6.4860992 -0.3028754 1
21.571617 -13.917178 -0.39153731 0
22.055498 -10.981235 -0.30329895 1
22.220434 -10.906539 -0.30526096 1
22.459185 -9.2749462 -0.32421362 0
23.082743 -6.1749115 -0.25217336 17.666666
23.640131 -3.9047861 -0.15848535 2
20.308182 -19.240675 -0.38720095 2
22.573195 -6.8121557 -0.28495067 4
20.165699 -19.088577 -0.39144379 10
21.988386 -8.7708149 -0.24427998 4
19.841637 -18.59362 -0.3925429 9
20.744669 -13.898486 -0.24461275 5
21.193916 -11.435659 -0.2990784 24
21.464067 -9.9902954 -0.28063858 8
21.64967 -8.921443 -0.3174634 8.5
22.224537 -6.7976398 -0.17821884 6
19.312464 -19.57896 -0.3454327 0
19.350098 -19.393518 -0.32316375 0
20.886189 -11.650019 -0.2973417 7
21.404209 -9.2425575 -0.36788553 3
21.876043 -6.6105738 -0.31600302 3
21.849072 -6.4842281 -0.20849967 5
18.585836 -18.991594 -0.39661324 1
17.513288 -19.290577 -0.37474185 0
16.765076 -19.015329 -0.45101881 1
17.009491 -13.361721 -0.4059394 1
79.490868 -20.520615 0.096997708 41
59.016281 -16.414795 0.082773745 12
59.485348 -14.445256 0.088318467 6
59.109898 -15.567186 0.086871982 19
59.559151 -13.203083 0.093883008 13
54.087173 -12.907271 0.081633806 4
46.202625 -11.392934 0.14843398 5
46.078556 -11.188055 0.018279374 8
45.409058 -10.474312 -0.095518112 48
44.268585 -10.259018 -0.062254071 22
43.088493 -10.031006 -0.028358221 22
41.669964 -14.852486 -0.03382802 3.5
41.999367 -9.809639 -0.10965329 6
40.747688 -9.596468 -0.068526328 28
36.015705 -8.4575558 -0.098010898 5
34.82386 -8.4336128 0.027228057 10.333333
34.856186 -7.8314466 -0.068134546 1
35.014984 -7.7693663 0.0062326193 1
31.636003 -21.819935 -0.21194029 6
34.324322 -8.2441883 0.11670789 1
33.634682 -8.2582178 0.025180101 20
33.632465 -7.6962919 0.048487186 1.5
30.587608 -21.627449 -0.23551077 2
32.478107 -7.9483223 -0.05028522 6.6666665
32.48254 -7.6433458 0.08163029 0
29.120665 -21.35733 -0.22195041 2
31.334932 -7.8040047 0.0075567365 4.3333335
28.436611 -17.077047 -0.069430947 14
30.283146 -8.3291273 0.010408163 5.25
27.952061 -17.911444 0.021715105 14
29.953743 -8.2773409 -0.069495142 9
29.913979 -8.0935173 0.04258287 5.6666665
30.186184 -7.5195923 -0.11610556 10
27.757 -18.671515 -0.065830767 39.5
27.924919 -17.913967 -0.096020937 32
29.509998 -7.3980265 0.055856168 4
29.376595 -7.4662981 -0.090908587 4
29.19488 -7.0924454 -0.01135695 6
29.602825 -4.8784647 -0.089142084 19
28.645605 -5.3244925 -0.013739884 6.75
28.355663 -5.2341623 -0.047926486 12.333333
28.412943 -4.9705849 0.081939071 1
27.376774 -5.6950741 -0.075610399 6.5
27.285299 -5.6477537 -0.011068821 11
24.045216 -20.324448 -0.2437104 39
26.756634 -5.1174488 -0.030987263 4
26.853806 -4.8913374 0.026037097 1
26.94899 -1.6346722 -0.075753689 4
22.003708 -16.984982 -0.0088902712 1
25.10145 -0.81537819 0.12306097 1
21.772518 -16.807859 -0.060361028 10
24.883377 -1.0933619 -0.0035541654 6.5
22.232361 -12.892118 -0.11595786 5
22.295282 -12.339039 -0.10038042 7
22.109322 -12.936174 -0.11908627 8
22.222645 -12.476054 0.035236239 13
23.289324 -5.9019737 -0.015136063 1.25
23.02347 -6.1329126 -0.0046599507 10.5
23.64612 -3.9053059 -0.012274265 6
20.614677 -15.564558 -0.12816018 9
21.012419 -13.881695 -0.11843514 6
21.069395 -13.705038 -0.13083279 4
21.923609 -8.8300362 -0.1277585 7
21.977728 -8.7218018 -0.042382836 3
20.480312 -15.40257 -0.002497077 2
20.616053 -14.641963 -0.18956941 1
21.174442 -11.441793 -0.042796671 1.5
21.451494 -9.8978424 0.026679337 0
21.633041 -8.9231367 0.055024445 5
22.231491 -6.8140364 0.051269174 6
20.490364 -14.514956 -0.048905492 0
20.439981 -13.962486 0.022797167 14
20.631227 -13.774527 0.029802918 6
20.732117 -13.211886 -0.0045121312 0
20.906803 -11.574001 -0.047385573 5
21.162434 -11.210344 -0.04877162 8
21.335646 -9.7337437 -0.17551994 2
21.622044 -8.778635 -0.14082873 2
21.918982 -6.6459475 0.038168669 3
79.44133 -20.509438 0.42199686 41
59.193703 -15.474074 0.29138571 66
58.977856 -16.214258 0.2883698 13
59.322548 -14.362656 0.29711366 19
59.535172 -13.225344 0.30193079 13
53.659477 -12.708493 0.35052156 9
46.24086 -11.432503 0.34703451 2.5
40.755169 -9.3894176 0.35404035 13
35.351601 -8.4272079 0.25248235 1
34.865173 -8.3036213 0.34030044 16
33.61256 -8.2439375 0.13649377 13
33.663467 -7.968997 0.35489517 16
33.580639 -7.8389349 0.24189547 2
31.263916 -7.8265638 0.31790936 21
28.311731 -17.797579 0.20855674 26.5
28.449348 -17.07807 0.21371156 13.5
30.248615 -8.3238039 0.2607401 7.6666665
27.947493 -17.911715 0.16778609 13
29.930149 -8.2533045 0.34393767 7
29.918133 -8.1139069 0.1926778 10
30.152597 -7.5084543 0.29663879 8.5
27.754913 -18.690619 0.19142202 27.200001
27.931631 -17.91144 0.22256708 28.75
29.564947 -7.2974052 0.20688632 18
29.368118 -7.4504671 0.24485776 48.5
29.148361 -7.3677111 0.27683932 1
28.624525 -5.3346691 0.16263881 1
28.560345 -5.0804453 0.22680235 1
28.412731 -4.9591303 0.15339282 1
27.331436 -5.5655041 0.18331364 9
27.320396 -5.46943 0.34718752 13.5
24.037231 -20.328894 0.16754624 57.5
27.427925 -1.5212479 0.31753927 1
26.868956 -1.6348839 0.23208505 4
26.698433 -1.3683844 0.31578827 1
22.034004 -16.998209 0.15648633 2
21.978294 -16.786709 0.24496853 26
21.828285 -17.094088 0.20795006 19
21.86438 -16.994135 0.20222661 21
24.873343 -1.1152029 0.30976862 11.666667
22.274261 -12.76734 0.24380365 8.6000004
22.168339 -12.872686 0.075361907 3
22.159166 -12.752577 0.25306317 10
22.244404 -12.456289 0.11849993 11
23.306223 -5.8833275 0.19933692 0.5
23.132154 -6.1386261 0.22719145 12.666667
23.599792 -3.9064445 0.24285105 3.5
22.737003 -5.944417 0.13583604 0
20.664797 -15.567214 0.13801473 11.5
21.013 -13.854387 0.19771573 14
21.052036 -13.702135 0.26992854 9
21.978336 -8.7404919 0.19036612 3
22.559309 -6.738965 0.10866147 1
20.530777 -15.56991 0.11007771 18
20.725618 -13.870536 0.12662339 5
21.190884 -11.43667 0.18754581 15
22.223719 -6.8036251 0.20228198 5
20.325834 -15.315707 0.077130646 31
20.3111 -15.130866 0.17907739 30.5
20.382278 -14.227666 0.29671443 0
20.484858 -13.95294 0.1881606 22.4
20.639952 -13.775948 0.28505349 16.5
20.762918 -13.197507 0.15039676 0
20.897203 -11.602781 0.25118777 12.5
21.115509 -11.238955 0.22888467 7.4000001
21.366615 -9.8806601 0.18696144 1
21.3922 -9.2302637 0.20068747 9
21.584913 -8.802494 0.20479169 3.4000001
20.101179 -15.160362 0.22790766 0
58.959335 -16.319651 0.49207801 12
59.126587 -15.471063 0.49722958 100
59.359695 -14.231462 0.50456703 13
59.527672 -13.22105 0.5104109 13
53.914707 -12.778632 0.5243004 8
46.217209 -11.404184 0.54703599 2
34.824352 -8.4487019 0.42047995 0
34.878113 -8.2978802 0.57814932 5
33.664349 -8.0331011 0.50494897 13.333333
33.087143 -8.0066462 0.43539178 0
32.597382 -8.068841 0.58031827 1
32.50145 -7.6830883 0.43872404 0
31.29858 -7.7293091 0.54787868 60
28.252256 -17.970665 0.38170546 15
28.296772 -17.800552 0.3834779 17
28.428162 -17.080875 0.42973137 14.375
30.261724 -8.3249807 0.52013969 7.3333335
28.048067 -17.843761 0.43585104 16.25
29.953455 -8.2495327 0.49142408 8.5
30.058542 -7.5463228 0.54994863 35
27.748056 -18.685513 0.42019817 32
27.906891 -17.908092 0.44425651 33
29.525461 -7.290267 0.45680466 13
29.374252 -7.4074564 0.49970862 34.333332
29.317242 -7.0662384 0.48764825 18.5
30.455147 -1.6852837 0.54343092 12.5
24.041553 -20.318232 0.38539016 67.285713
26.818701 -1.6131334 0.58313626 9
21.945499 -17.057886 0.49678916 11.75
21.774185 -17.141668 0.35286671 6
21.882946 -17.090242 0.44052157 8.5555553
21.918327 -16.779215 0.44333154 15.375
24.861385 -1.1156178 0.53287035 13.5
22.355537 -12.741446 0.42540663 10.555555
22.09165 -12.717332 0.44769847 5.3000002
23.30224 -5.8498383 0.47540528 0.5
23.095404 -6.1768875 0.47141188 22
23.571762 -3.8994675 0.49779764 9.666667
20.714094 -15.579266 0.45320898 16
21.025352 -13.819779 0.42921409 12.315789
21.04678 -13.70926 0.38544923 11
21.961948 -8.7846279 0.55963045 5
21.982893 -8.7543936 0.43695772 4.3333335
22.528774 -6.781168 0.56412488 5
20.562279 -14.664441 0.45119235 1
20.633587 -13.996198 0.32813153 0
20.734434 -13.901213 0.43463317 46.200001
21.193552 -11.464474 0.43645126 55
21.66061 -8.7438393 0.46484333 7
22.225239 -6.8044081 0.44895917 6.5
20.145929 -15.163071 0.46409768 1
20.29973 -15.142016 0.37827551 46.400002
20.440483 -13.969298 0.40072435 15.5
20.63002 -13.778956 0.39557204 10
20.752781 -13.168606 0.42625952 0
20.946117 -11.620113 0.40203485 7.6666665
21.126171 -11.235061 0.45767722 6.25
21.508137 -9.3140507 0.38175589 0
21.576399 -8.7883501 0.48764622 3.5
20.090357 -15.160298 0.39212698 0
20.188848 -14.214191 0.53794259 0
20.169556 -13.873663 0.45971024 0
20.780075 -11.57028 0.48179427 2
79.454437 -20.49313 0.74570024 51
59.014549 -16.370489 0.79757535 10
59.365639 -14.474465 0.70934755 7
59.085094 -15.577904 0.70105034 22
59.30024 -14.336903 0.91598314 39
59.485741 -13.452536 0.92392588 13
59.517452 -13.335955 0.71738881 15
53.913666 -12.878592 0.78700936 4.5
46.205589 -11.438587 0.74592322 3.5
43.38324 -9.9182262 0.79816699 6
41.886711 -9.8554783 0.78483891 100
41.165623 -9.6435175 0.67233384 2
40.709984 -9.6160107 0.77608591 100
40.761387 -9.3296499 0.6728667 4
34.807129 -8.5255108 0.73389536 43
33.652916 -8.218421 0.80175984 32.333332
33.681225 -8.0733032 0.6543811 22
33.090942 -8.0190125 0.79732823 2
32.460068 -7.9417133 0.72018039 13
32.250004 -7.5796976 0.65221626 1
31.25621 -7.8411894 0.81106257 52.5
28.424953 -17.082083 0.6971277 15.4
30.299288 -8.3373327 0.72973764 8
28.110443 -17.794157 0.68051171 16.333334
28.338631 -17.027264 0.57547879 1
29.932707 -8.2599697 0.75702214 8.1999998
30.03569 -7.5738459 0.78444839 56.75
27.741554 -18.684534 0.66553766 40.25
27.905298 -17.909529 0.66686887 43.25
29.585026 -7.374568 0.76717228 11.5
29.687641 -7.26089 0.77068818 1
29.339409 -7.4537973 0.70296562 104
29.163342 -7.3417492 0.76422054 1
29.206299 -7.1063995 0.64383131 90
27.291344 -5.3232117 0.74942923 4.25
24.063856 -20.536404 0.57221937 58
24.039234 -20.325205 0.62270463 55.25
27.376379 -1.5035105 0.67367643 1
26.749649 -1.380352 0.67211848 1
22.473604 -20.001884 0.58997792 41.5
22.236835 -17.050137 0.62557036 94
22.070095 -17.164925 0.65151376 2.5999999
22.002775 -17.050943 0.59597903 7.5714288
22.00111 -16.703281 0.79206383 12
21.90984 -17.061096 0.58784944 7
21.939646 -16.760347 0.61269987 16.333334
22.5091 -12.661875 0.81629896 1
24.875122 -1.1197853 0.75598937 12.666667
22.380173 -12.726712 0.67431849 5.25
22.051867 -12.712523 0.65602446 4.1428571
23.286142 -5.9077206 0.72146273 1
21.937731 -12.620232 0.83022958 4
22.987083 -6.2967596 0.6847859 75
23.135965 -6.1634111 0.75897306 32.599998
23.598673 -3.9208527 0.75278133 9.5
22.945246 -6.1408939 0.74680901 3
20.711042 -15.580402 0.59480858 19.25
21.026981 -13.817496 0.66579437 10.4
21.058268 -13.702997 0.56980222 3
21.908451 -8.7986813 0.60518205 6
21.977753 -8.7480869 0.65180719 5
22.55772 -6.7812405 0.6208666 2
20.564138 -15.569909 0.65654248 9
20.479616 -15.422554 0.5876376 82.75
20.610029 -14.667255 0.60546845 87.199997
20.698669 -14.034459 0.68310142 1
20.745237 -13.908839 0.66179991 85.875
21.190731 -11.462977 0.67574477 72.75
21.466511 -10.012367 0.6755057 42
21.734816 -8.8873711 0.72280574 36.400002
22.221939 -6.808362 0.73308814 5.5
20.2528 -15.227693 0.71405768 40
20.311745 -15.128521 0.74760962 49
20.456495 -14.77635 0.64982277 1
20.454367 -13.953836 0.77662933 31.25
20.584726 -13.094248 0.57200778 0
20.641176 -12.972988 0.61470711 3
20.921381 -11.628999 0.6534906 7.8571429
21.068558 -11.22073 0.71192038 6
21.404919 -9.2393236 0.6446296 9.666667
21.614929 -8.8299255 0.72003329 9.5
21.845938 -6.5169792 0.67875469 5
20.31506 -13.937413 0.66744751 1
20.504045 -12.989548 0.65700173 0
19.321253 -13.61647 0.78347552 0
79.411438 -21.067099 1.0654128 58
58.959255 -16.329773 1.1035585 13
59.074661 -15.482572 1.1110417 19
59.303463 -14.368999 1.1224229 63
59.50016 -13.233663 1.1338725 14
53.943718 -12.779398 1.2279149 8
53.66478 -12.712078 1.0483512 10
46.074932 -11.1557 1.0123191 8.5
35.131485 -8.4669247 0.97719753 1
32.22641 -21.860537 0.8472693 33
34.869022 -8.3004837 1.0541809 6
34.381763 -8.380785 0.96209085 1
33.686741 -8.0104742 0.99221373 8.5
33.17765 -8.1079235 0.94184089 1
32.87949 -7.9149075 0.93993425 1
