# .PCD v0.7 - Point Cloud Data file format
VERSION 0.7
FIELDS x y z intensity
SIZE 4 4 4 4
TYPE F F F F
COUNT 1 1 1 1
WIDTH 1210
HEIGHT 1
VIEWPOINT 0 0 0 1 0 0 0
POINTS 1210
DATA ascii
-4.0076394 -1.6500636 -0.56992573 15.5
-3.2601743 -2.4164639 -0.41993728 22.5
-2.3330541 -2.8801203 -0.46745363 16
-6.9095154 -0.083932236 -0.57962292 34.998016
-6.7938805 -0.11279462 -0.57217932 35.361111
-5.1811833 -1.0009204 -0.53099245 50.25
-4.0684037 -1.5183034 -0.50487757 25.107143
-4.0004349 -1.61202 -0.6068573 5
-2.9518609 -2.0069726 -0.48599061 32.75
-2.5656629 -1.9434212 -0.5292697 33.583336
-0.21213484 -3.2182412 -0.5681718 9.5357141
-6.9816265 0.68847525 -0.71283883 25
-5.9597158 0.0082837641 -0.58203906 9
-5.7179966 0.046435744 -0.5642947 22.75
-2.4807391 -1.5806667 -0.70468909 0.5
-2.163281 -1.7310858 -0.51554126 8.1111107
0.13313794 -2.878413 -0.67376167 21.166666
-6.8731661 0.76008248 -0.75927037 10
-6.6597242 0.82503235 -0.68779492 17.299999
-5.8297157 0.36909297 -0.63289362 46.811111
-5.58988 0.14792573 -0.5555532 31.055555
-5.2693119 0.18494132 -0.53103596 40.527779
-2.1769042 -1.3793727 -0.55752289 12.549107
-2.0726161 -1.5401894 -0.49695125 17.127485
-0.43202806 -2.1396058 -0.52962387 13.387206
-0.2939024 -2.3042736 -0.52612829 11.388888
0.34829855 -2.6019447 -0.53348124 41
0.57503963 -2.6799655 -0.55050218 34.721077
0.90756297 -2.7278407 -0.58631271 33.25869
-6.4088011 0.89337409 -0.66839939 16.5
-6.0469103 1.0101768 -0.69017941 20.366667
-5.780282 0.92061388 -0.62093645 19
-5.3386912 0.520105 -0.51273966 17.799999
-4.9046054 0.47230604 -0.57212245 15.732143
-2.0381021 -1.2386773 -0.47651759 25
-0.58278179 -1.7226388 -0.51661718 22.426283
-0.54383779 -1.9007472 -0.52472246 21.208334
0.53891945 -2.1059666 -0.44284517 82.569702
0.62455654 -2.2505496 -0.45145807 64.089287
1.0800824 -2.6102602 -0.54301542 41.296825
1.3756723 -2.4902582 -0.55980521 49.622223
-6.0944338 1.4874201 -0.44570625 5.5
-5.928277 1.3216468 -0.56654632 10.041667
-5.4958396 1.1085106 -0.5870173 16.916666
-4.9458776 1.056978 -0.46713617 17
-4.8614564 0.77562451 -0.55215693 18.813025
-4.3358712 0.70088804 -0.55543274 20.566668
0.46173561 -1.977376 -0.43727469 89.915588
1.1864126 -2.1328743 -0.50714439 32.25
1.6202906 -2.4559534 -0.52900505 46.256805
1.9700584 -2.4112215 -0.49390766 47.052017
2.8462486 -2.7635155 -0.67486328 0
-6.2135086 1.778234 -0.42830676 12.5
-5.8676949 1.5700719 -0.44914126 52.666668
-5.3516173 1.4493449 -0.54423356 13.751985
-5.0272593 1.2935014 -0.54589087 9.0738087
1.0616264 -1.7273713 -0.57630783 12.599999
1.507555 -1.6808226 -0.74561089 2.5
1.7254939 -1.8109405 -0.74817801 3.3333333
2.2059374 -2.3583019 -0.47105417 46.722221
2.5064232 -2.3390348 -0.46394542 52.355553
2.7358413 -2.4557884 -0.4968833 32.1875
-4.7934146 1.5274521 -0.58657265 2
-4.535296 1.5190127 -0.55233014 0.13333334
-4.1378512 1.5065708 -0.58120769 0
1.3632383 -1.4805071 -0.71049869 4.3000002
1.5540245 -1.6273022 -0.71289885 3.75
1.7382901 -1.7238611 -0.70829499 7.3333335
3.0359874 -2.1028457 -0.55509818 33.452381
-4.4440541 1.7559326 -0.44110239 0.055555556
-4.0306606 1.598845 -0.57364213 0.125
-3.5814757 1.61854 -0.55043483 28.305557
3.1697819 -1.890795 -0.6211459 69.412498
3.6302471 -1.9139165 -0.45140153 25.888962
3.8571324 -2.0577929 -0.60484773 0.42857143
3.7722421 -1.7694007 -0.44749099 0.1
4.0175443 -1.6879429 -0.56012815 0.1
4.5776834 -1.9606322 -0.619434 15.428846
4.7644176 -1.9735447 -0.54156315 1
3.7162519 -0.97752619 -0.37532875 11.9
4.4563622 -1.4697685 -0.52914762 6.3571429
4.6736784 -1.603179 -0.51379508 6.9483695
4.8909607 -1.8294462 -0.54584938 7.0999999
-0.12482119 1.273988 -0.5002318 19.489012
0.19501376 1.1932852 -0.53134495 50.922222
3.8853784 -0.70697278 -0.53939199 13.807693
3.9954357 -0.8370707 -0.74207443 2.7368422
4.8995786 -1.4724237 -0.45050597 14.736111
5.0388861 -1.4546045 -0.4712241 8.333333
-1.4236166 2.1175787 -0.67493784 21.833334
-1.1262696 2.2005203 -0.50549579 25.25
-0.25464439 1.7083488 -0.50691116 34.155556
-0.10156775 1.5949439 -0.47335145 40.860508
0.20641303 1.3892236 -0.55412114 40.100002
3.9916286 -0.61780417 -0.41253263 5
4.0481639 -0.61663091 -0.42776757 3
4.7328706 -0.59221637 -0.52013892 23.485294
4.9364429 -0.71561968 -0.49908224 21.611113
5.5537481 -1.1353885 -0.60776305 52.666668
5.5713854 -1.2400433 -0.54358476 35.839287
-0.96218586 2.2513113 -0.62533295 27
-0.43858886 2.3216658 -0.4702749 29.666666
-0.10955691 2.137862 -0.58762717 1.5064104
0.093056202 1.8874264 -0.53353339 27.238094
0.31305313 1.6301819 -0.56776398 57.333332
0.92891574 1.7327657 -0.56640643 28.854168
3.8391967 0.15928087 -0.37873077 2.5
4.0535302 0.01259774 -0.58041871 1.96875
4.5335093 -0.24451286 -0.46712241 19
4.7754121 -0.39170349 -0.5243066 22.369484
5.4426136 -0.75968635 -0.56948107 44.099998
-0.3248415 2.4255228 -0.41786319 41.900002
-0.15578747 2.4725816 -0.45501828 27.391943
0.36799812 2.0966029 -0.52390879 23.947369
0.55038702 2.0950091 -0.50139332 27.684616
1.0809729 1.8284957 -0.49053523 21.092718
1.3820028 1.8206787 -0.52707231 31.437038
3.676687 0.75751424 -0.5670504 6.6176472
3.8761897 0.50281739 -0.73583156 1.5
4.7512298 0.0071500838 -0.52216631 1
5.0234108 -0.032752186 -0.51178479 5.8611112
5.2396216 -0.08005321 -0.55433494 21.773148
1.2852912 2.0424242 -0.3642247 5.1428571
1.4892157 2.1130142 -0.50517243 8.3619051
2.6057715 1.7453427 -0.36739898 14.333333
3.5664682 1.3237351 -0.51259422 1
3.6926758 1.0301447 -0.47330168 7.2083335
4.1148539 0.9073894 -0.45576578 1.486111
4.4237623 0.91408992 -0.51731867 4.3636365
5.2220602 0.15039673 -0.52256113 25
1.1532023 2.7436693 -0.37646455 60.64706
1.4163101 2.7754283 -0.475144 56.248272
2.713835 1.9467897 -0.40857947 7
3.4096594 1.8246748 -0.42255133 20.888889
3.6089482 1.5504944 -0.47925189 16.811111
4.4031854 1.132532 -0.46904549 0.75
4.5196981 1.0355014 -0.48079786 7.0777779
4.9496613 1.0975758 -0.52968496 3.75
-2.2183204 4.8900323 -0.36528772 1
-2.1621304 4.8150096 -0.39986166 2.25
1.6228104 2.8163695 -0.47124103 58.520245
1.7895687 2.8549638 -0.47031173 56.848217
2.6123495 2.3967376 -0.71039164 0.5
2.9001894 2.3112791 -0.36599648 1
3.4030645 2.0089707 -0.39691541 2.2
3.8049388 1.9864209 -0.70102376 1.0833334
4.0455556 1.8732834 -0.71175361 8
4.52876 1.3790724 -0.37101769 1.5
4.5829039 1.4030697 -0.37962022 2
4.9664259 1.1420929 -0.53667855 6.5
-2.9095917 5.6661706 -0.65879309 2
3.5320582 2.6547105 -0.45803979 3.3333333
4.0275784 2.030808 -0.74346811 0.66666669
3.0830846 3.253721 -0.505885 23.75
3.5028615 3.0433655 -0.39469275 0.40000001
3.6823306 2.8320065 -0.50072241 11.75
3.2337565 3.3894889 -0.50461602 33.609253
3.5022712 3.3903766 -0.51334226 23.457535
3.83688 3.3046227 -0.63367981 9.9666672
3.1926327 6.3560066 -0.41495654 2.2222221
3.1722708 6.4576511 -0.40833935 2
-10.333468 -4.7720571 -0.1908886 1
-10.481885 -4.5482726 -0.15203027 1
-10.179341 -4.4819474 -0.30294654 0.75
-7.6901398 -4.3692894 -0.11682865 3.2
-7.553483 -4.4151645 -0.14717887 2
-9.9581833 -2.7607241 -0.24391569 16.366667
-9.9496441 -2.8991814 -0.097867265 16.5
-7.6594887 -4.1697125 -0.17769882 2.9178569
-7.3071632 -4.2327461 -0.29423395 0.75
-10.661717 -2.0216241 -0.13813274 2.25
-10.440235 -2.0679216 -0.24902813 2
-9.9468641 -2.6529551 -0.24295412 16.866667
-7.2004557 -4.0337 -0.31906584 1.75
-6.7522707 -4.1012187 -0.36362937 1
-10.698008 -1.5427868 -0.097786322 1
-10.588493 -1.7778891 -0.17365257 2.0333333
-10.247722 -1.8229804 -0.35461468 18.055555
-9.9701233 -2.1308663 -0.20310362 19.125
-9.0445948 -2.4371791 -0.22224979 11.333333
-10.622959 -1.4656283 -0.13486421 1.5
-10.382771 -1.5149997 -0.2618731 11.5
-10.220818 -1.654827 -0.35249898 14.75
-9.1496506 -2.0868232 -0.15394722 13
-9.1185904 -2.1409466 -0.22163992 20.533333
-7.9999084 -2.4023187 -0.20016024 5
-7.9517689 -2.3905103 -0.26051816 8
-6.2572117 -3.2607231 -0.17154878 0.1
-5.977294 -3.526253 -0.23845856 4
-5.8232088 -3.6009676 -0.32122353 15.5
-10.155443 -1.2738461 -0.38477686 7
-9.6686869 -1.1684022 -0.22673808 2.6666667
-9.5236025 -1.2262834 -0.084931433 7
-7.693305 -2.3825562 -0.22359554 13
-6.1788321 -3.2065253 -0.090658814 0
-5.9348917 -3.2910292 -0.165593 22.450001
-4.253264 -3.8327711 -0.1384982 8
-4.0759549 -4.1418881 -0.07321395 14
-9.1377935 -1.0278717 -0.1810323 2.1666665
-6.9661884 -2.0882533 -0.28722548 3
-4.8300066 -3.2070992 -0.15378852 1.75
-4.7315993 -3.3145816 -0.15996902 6.2633333
-3.1780744 -4.0584979 -0.39586034 5
-2.8951468 -3.977391 -0.3781518 5
-9.9997931 -0.10617061 -0.15665446 39
-9.2841969 -0.44199151 -0.11299728 2
-9.1844797 -0.7149812 -0.21407101 1.9111111
-8.8119192 -0.66138983 -0.33688396 3
-8.2460623 -0.97626972 -0.071429789 1
-7.0970945 -1.4872454 -0.28608724 4
-6.9077911 -1.6870611 -0.28160295 29.555555
-4.2920008 -3.0849891 -0.13034862 2
-4.2724214 -3.1114767 -0.13014074 1.3333334
-2.593781 -3.8904428 -0.3231315 7.1666665
-9.9774694 -0.018915653 -0.1559584 29.166666
-9.6400776 0.055843443 -0.15008624 8.5555563
-9.2573318 -0.33121023 -0.11231674 2
-8.7921057 -0.41831696 -0.20506327 1
-8.5880814 -0.48002666 -0.26469395 1.2222222
-8.06108 -0.7781992 -0.37382212 4
-8.0434427 -0.82467997 -0.22110437 2.625
-7.4468269 -0.91651285 -0.23604999 7.2666664
-2.7116008 -3.4325709 -0.03399409 19
-2.2855024 -3.3988838 -0.11160322 20.819445
-2.1634121 -3.5880194 -0.22726052 25.958582
-1.7861638 -3.658318 -0.21548547 8.666667
-9.1957865 0.14305213 -0.14254253 11.777779
-8.4084911 -0.20040058 -0.21017887 1.6666667
-8.1223774 -0.30927914 -0.31183213 10.833333
-7.3462877 -0.82019949 -0.28946573 12.633333
-5.0134554 -1.739966 -0.33061332 46.125
-4.9955578 -1.8209444 -0.30876711 61.555553
-3.5219092 -2.3622274 -0.16184388 2
-3.3294396 -2.4717135 -0.27359512 15.958334
-2.6253781 -2.8546224 -0.20458686 9.5555553
-2.2846789 -3.1897566 -0.20401223 18.849934
-2.1774321 -3.3876486 -0.27047822 40.5
-1.6807652 -3.6299689 -0.21089232 10
-1.2186317 -3.5032547 -0.021958303 10
-8.5856476 0.18563971 -0.2935752 2.25
-8.3099823 0.050648034 -0.28586081 6.75
-7.2623329 -0.25661939 -0.34017447 2.5
-5.6111221 -0.99236095 -0.16383328 14.749999
-5.3313842 -1.0621058 -0.26976997 25.208332
-5.0927262 -1.3639444 -0.28573874 53.521431
-4.4646988 -1.592867 -0.21532071 9
-4.3927999 -1.5837752 -0.22796257 9
-3.2415586 -2.3628767 -0.29904434 6.3888893
-2.7352715 -2.3215389 -0.25980812 28.849998
-2.5176859 -2.6147621 -0.21733673 21.029762
-2.3289895 -2.8671203 -0.35618955 19.25
-1.0316691 -3.4479094 -0.019974608 11
-8.0603046 0.46141282 -0.27721897 12.416666
-7.7126265 0.52156746 -0.2372921 11.555554
-6.9278383 -0.17584664 -0.32688046 8
-6.7158403 -0.11326417 -0.34526151 18.424999
-5.1734462 -1.0150322 -0.33037293 49.083336
-4.1392627 -1.4678882 -0.20828776 25.383333
-2.9373813 -2.010654 -0.35349032 63
-2.6029539 -2.0282238 -0.26945597 36.37738
-2.4680781 -2.2395031 -0.20677201 2.5833333
-0.42042041 -3.3668289 -0.13579887 5
-0.19792771 -3.2326696 -0.19694887 11.143939
-7.4997568 0.58556831 -0.17375615 10.555556
-7.1424856 0.66500604 -0.18303205 15.638889
-6.1791239 0.020560086 -0.29717994 7.6666665
-5.6891441 0.067516237 -0.24671607 26.833334
-2.300879 -1.668514 -0.16615097 29.22415
-2.2704659 -1.7425039 -0.18883958 21.19375
0.24781585 -2.8185563 -0.15262531 4
-6.635397 0.80812299 -0.23389395 14.7
-6.3649139 0.85002363 -0.19997118 14
-5.7594633 0.46660623 -0.27998844 25.4
-5.5972767 0.17666116 -0.20441477 32.198509
-5.2918067 0.18433797 -0.19509523 34.341667
-2.3103189 -1.4577912 -0.18849653 31.397953
-2.1154881 -1.5612088 -0.2759304 11.45
-0.44475579 -2.1233556 -0.15096879 16.522848
-0.31844306 -2.3023095 -0.18271931 16.566668
0.36359239 -2.5983958 -0.18744372 15.696969
0.58151639 -2.715579 -0.14698043 33.129116
0.92281437 -2.7645161 -0.13717873 44.80077
-6.3903704 0.88958573 -0.25240749 16
-6.0752287 1.0151175 -0.24193843 20.933332
-5.7603607 0.796345 -0.23993008 12.541667
-5.3963451 0.56651998 -0.24297266 19.708334
-4.9609785 0.46504113 -0.22733764 16.327084
-0.95401549 -1.4003654 -0.03492057 0
-0.57942247 -1.7185137 -0.14578725 25.427176
-0.53883648 -1.8992001 -0.14864445 21.369654
0.54600227 -2.1133802 -0.12106207 91.0392
0.6206007 -2.240494 -0.12333709 60.313759
1.1565812 -2.5925281 -0.13663727 39.579956
1.3973651 -2.5313623 -0.12615049 45.174965
-10.043109 3.4207344 -0.072135121 1
-9.9642801 3.2169633 -0.18368869 0.75
-8.7291908 2.7775092 -0.26338038 1
-6.1755667 1.4683255 -0.19450803 22.108843
-6.0467911 1.2922122 -0.24930905 19.333334
-5.493041 1.0449171 -0.23085426 21.85
-4.9454474 1.0550934 -0.11825521 25
-4.8855262 0.80110347 -0.095966369 24.470589
-4.3137264 0.69207191 -0.194609 55.75
-0.78761339 -1.3374374 -0.07352303 2.6666667
-0.69863629 -1.2499976 -0.13303684 4
0.32705879 -1.7930815 -0.010049898 77.833336
0.43665481 -1.9406505 -0.13433737 100.16306
0.91371274 -1.8986044 -0.10294731 7.2463541
1.1809782 -2.1319656 -0.14126693 15.799145
1.6409428 -2.4859672 -0.11721486 41.127243
1.9673424 -2.4284418 -0.10713665 44.125786
-8.2668648 2.8477015 -0.25140759 1
-6.3854265 2.0350306 -0.13507135 3.5625
-6.1666622 1.7378056 -0.17364816 32.079998
-5.6042233 1.6471704 -0.21530731 1.75625
-5.5112782 1.5001767 -0.24750523 11.166667
-4.9225645 1.2313452 -0.2051737 15.32037
-4.8059268 1.3196403 -0.17964834 5
0.94928575 -1.8109113 -0.13445112 14.6875
2.2225406 -2.354589 -0.1144636 45.447136
2.4972906 -2.3210955 -0.11085118 54.792385
2.7266207 -2.4454889 -0.11139914 46.994175
-5.6598577 2.1717229 -0.034500029 0
-4.7700305 1.5912219 -0.26545113 0
-4.5260501 1.6130459 -0.27667275 0.12
2.6666355 -2.1772783 -0.10762928 64.791664
3.0916178 -2.0582783 -0.098360494 69.440224
3.2475131 -2.2466455 -0.020418566 24
-6.8024435 2.9329834 -0.32738 1
-4.8303075 1.9180706 -0.20380771 0
-4.4335408 1.7563019 -0.29473406 0
-3.8597665 1.6262257 -0.19810201 0.33333334
-3.5705261 1.6171043 -0.19897155 32.021214
3.2693858 -1.9626836 -0.096266598 75.291664
3.5658779 -1.9547222 -0.10470565 51.722271
4.0142422 -2.1045263 -0.075462624 25.205551
4.2014999 -2.1448262 -0.1237646 7.875
-3.4994106 1.6936908 -0.3425962 9
3.8700955 -1.6136422 -0.10595922 10.225965
4.0843577 -1.8221624 -0.1008756 6.1157885
4.386591 -2.0111935 -0.093177438 13.610339
4.7940254 -1.9819314 -0.1202151 0.80000001
3.6886663 -0.93225288 -0.36261544 12
3.9501953 -1.4694207 -0.063502505 23.916666
4.3178492 -1.5083709 -0.10201174 0.43249908
4.6842546 -1.5533262 -0.11863023 5.3144383
4.8463926 -1.8354771 -0.16025959 8.2772493
-0.052651882 1.2424856 -0.13532491 38.063259
0.078301668 1.2374576 -0.11811 37.206768
3.8893151 -0.65624875 -0.079634979 41.549076
4.1010485 -0.77156913 -0.081094742 42.774216
4.3165255 -1.1308404 -0.15619871 1
4.9008794 -1.4347007 -0.10232288 8.3778467
5.2127428 -1.3575368 -0.12126647 16.78598
5.4530301 -1.435033 -0.11939685 3.6666667
-1.1766517 2.1628742 -0.13290915 25.583334
-0.25935054 1.581094 -0.11407645 68.913094
-0.016821623 1.6201143 -0.1338283 69.238182
0.13336849 1.3541634 -0.13157888 40.813572
3.7101607 -0.19354174 -0.038562719 41.422157
4.0043173 -0.60363555 -0.13169873 10.816667
4.1054077 -0.641096 -0.13072215 6.2623014
4.7506657 -0.59785897 -0.32519761 28.333334
5.0535755 -0.74680078 -0.22422077 9.1311226
5.30303 -1.2175643 -0.12841801 35.268761
5.5551043 -1.2686973 -0.034515496 53.641815
-0.39177084 2.3803601 -0.18617 40.296295
-0.12074971 2.147938 -0.046250556 42.095238
0.057273626 1.8309743 -0.13563071 98.447876
3.8596864 0.088047862 -0.078815222 24.022135
4.0568423 0.0048583746 -0.06891863 32.980541
4.5001297 -0.14571661 -0.10487418 15.575106
4.9354773 -0.33000427 -0.1152548 19.584074
5.1979079 -0.51938939 -0.10306707 30.283272
5.418602 -0.7432825 -0.062529743 46.94857
-0.3035779 2.4318926 -0.14176598 39.184361
-0.070848942 2.4822776 -0.13107209 32.840942
0.34073949 2.1648691 -0.13313852 15.290318
0.60208905 2.1461275 -0.27352068 25.568268
1.0463721 1.8152285 -0.3534373 13.133333
2.2128599 1.5565715 -0.23369016 21.990498
2.4125638 1.4576054 -0.31006271 100
3.608614 0.80740178 -0.068271041 28.60247
3.8683786 0.46712193 -0.1526807 16.25
4.6141186 0.10474622 -0.098222241 11.723839
5.0538979 -0.076912522 -0.097034395 10.143657
5.252461 -0.13468185 -0.07982488 30.705017
0.21628904 2.5808163 -0.12414671 36.905815
0.52550638 2.6589208 -0.11724648 45.949314
0.8433075 2.367135 -0.29713449 15.845959
1.0810859 2.3228199 -0.33379436 20.956522
1.4092119 2.0374286 -0.35515934 6.6666665
2.132854 1.9652948 -0.069389597 9.8472223
2.3112655 1.6448197 -0.10902549 26.012144
2.4909112 1.6016021 -0.26205227 38.017643
3.5630894 1.2364109 -0.085637033 1.2601162
3.683043 1.0021005 -0.078826487 17.468313
4.0248442 0.8785584 -0.083633006 23.566555
4.3364968 0.78163362 -0.052113984 18.115597
0.76388967 2.7359276 -0.11025926 54.984615
1.0370553 2.7772787 -0.1378867 62.308876
1.3307468 2.8531196 -0.11906496 76.272881
2.1376421 2.0948842 -0.061581429 7.0749998
2.6022611 2.1134703 -0.24628909 21.410891
2.803937 2.0828745 -0.29520556 19.293652
3.4290779 1.8455887 -0.095194727 9.0264702
3.6275067 1.7139826 -0.093719631 30.861971
4.3538237 1.1296824 -0.098840296 9.4747572
4.5446377 1.0877728 -0.098408192 4.6402674
1.5716864 2.9062753 -0.11693428 83.160278
1.8583269 2.9796238 -0.11622871 66.998741
2.7465653 2.3658409 -0.24670847 15.657407
3.4455609 1.9713213 -0.10059778 7.3468003
3.6289155 1.806303 -0.098096728 46.754562
4.0033965 1.9664986 -0.27574012 3.5
4.4579077 1.374591 -0.19763057 49
4.865941 1.2826355 -0.049894851 23.800661
2.1633704 3.0718813 -0.066025302 47.875973
2.4557457 3.1587758 -0.10598713 44.680538
2.89114 2.5956867 -0.26750329 15
3.3954239 2.658498 -0.089008287 24.357143
3.4727991 2.4896889 -0.11164591 9.8521404
4.089932 2.0974708 -0.13925512 13.5
4.7931604 1.6695335 -0.2366731 18.5
2.6752908 3.2121334 -0.10764211 41.169567
3.0022316 3.2708259 -0.12577751 42.985924
3.6579614 2.8043668 -0.26263255 5.272222
3.2455571 3.3796976 -0.11597072 44.236023
3.4791505 3.4273629 -0.11930142 35.739689
4.550231 2.7387018 -0.29119334 8
3.1841695 6.3819451 -0.14854161 1.8
3.173136 6.4565477 -0.13053177 2.2
-10.872907 -5.044836 0.29052627 1
-10.42245 -5.2639565 0.12385263 2
-10.579249 -4.9574099 0.1245317 2
-10.363514 -4.8841252 0.16291113 9.333333
-10.513888 -4.5524206 0.14368454 5.4642859
-9.0224342 -4.8426867 0.32826039 12.5
-9.6835203 -4.0044518 0.3026832 7
-9.5587482 -4.069243 0.3001706 1
-7.7891426 -4.3288283 0.13686605 3.9583333
-9.9465933 -2.7739844 0.15930238 19.361111
-9.9394321 -2.9361091 0.15904947 18.321825
-7.8245087 -4.1485476 0.14342391 4.8233333
-10.94169 -2.0813305 0.1321796 2
-10.622631 -2.0114219 0.16018607 5.9000001
-10.414439 -2.118088 0.24110711 22.25
-9.9558277 -2.5053854 0.15991609 20.433332
-10.711287 -1.5497797 -0.02135114 1
-10.611988 -1.7990216 0.16814514 9.1921301
-10.42213 -2.0375698 0.20355077 24
-9.9646034 -2.2020936 0.16063461 21.233334
-10.717104 -1.4340475 -0.02085628 1
-10.470187 -1.4785035 0.20573786 19.518574
-6.2035007 -3.2621284 0.2531631 0
-6.0672712 -3.3489885 0.17253749 9.8000002
-9.6887522 -1.1786554 0.15350592 1.7333333
-9.5236635 -1.2318691 0.019328363 3.25
-6.1512299 -3.1750457 -0.011209559 0
-5.9808292 -3.2210851 0.092696182 20.283333
-4.0582743 -4.1844745 0.1303608 27.295237
-3.938179 -4.2424049 0.17509766 20.299999
-9.162138 -0.99152899 0.15544324 1.9083333
-9.0313396 -0.98250306 0.12100369 1
-4.818758 -3.2146344 0.14501145 1.8333334
-4.7836814 -3.3015001 0.13002861 5.3194442
-3.2546449 -4.0692081 -0.0040222593 3.5
-2.9068251 -3.9890609 0.37415746 3
-9.9952726 -0.09832862 0.16831256 46.138885
-9.2883606 -0.4477174 0.15913653 1.5833334
-9.2116899 -0.69903028 0.15726648 1.9675926
-8.3344946 -0.90992832 0.053185012 1
-4.3824859 -3.1107378 0.13716632 15
-4.2558217 -3.1615524 0.12886961 1.2857143
-2.5720544 -3.8963177 0.30300674 7.0833335
-2.332634 -3.8364842 0.18409623 7.0555558
-9.9768591 -0.01653567 0.10852729 47.333332
-9.6536531 0.060227662 0.16545846 11.138889
-9.3176041 -0.34012008 0.18042867 1.4
-8.8161964 -0.30154836 0.056702375 0.8888889
-8.642642 -0.27433473 0.18512917 1
-8.2066174 -0.90737271 0.052870966 0
-2.7195697 -3.4432013 0.018345505 12.75
-2.6065969 -3.4470596 0.01853876 10.5
-2.068017 -3.7430642 0.19277896 11.8
-1.7853913 -3.6549511 0.14659414 14.166667
-9.4083662 0.13457054 0.12858742 11.5
-9.2965212 0.15152103 0.16209809 10.666667
-8.6340237 -0.23715997 0.056700021 0.66666669
-1.5311627 -3.5857666 0.12416486 16.241665
-1.2483974 -3.5111089 0.15040232 23.372223
-8.7329359 0.30369911 0.25410086 11
-0.99846005 -3.4400973 0.14510761 26.759258
-0.71524668 -3.3666234 0.13872463 27.672487
-7.7043638 0.56499922 0.23574398 16
-0.48024845 -3.2683337 0.13360305 26.227779
-0.26354837 -3.2523429 0.17588671 14.289948
-7.4891062 0.61543524 0.11634417 14.333334
-7.2137842 0.67790544 0.19240476 13
-5.6482668 0.050099343 0.2280456 44
-2.3254714 -1.6505919 0.1123025 33.213345
0.089068651 -3.1093254 0.26736954 11.5
0.47513413 -3.0389595 0.19200905 19.254763
-6.9747801 0.73790097 0.25960007 14.833333
-6.6647406 0.81240523 0.25303885 16.811111
-5.6557369 0.49874845 0.054195337 12
-5.4681401 0.22632882 0.15107141 24.882143
-5.2984438 0.18544832 0.14829159 35.05714
-2.3349695 -1.4961202 0.15557812 28.537374
-0.4645052 -2.1004331 0.11637104 17.194445
-0.15595293 -2.4462638 0.11500518 15.684367
0.17957449 -2.5801482 0.13967612 22.278334
0.60761023 -2.7065125 0.13439028 26.072489
0.87346292 -2.9020939 0.13541682 24.874979
-12.661398 4.264812 0.1805113 2
-6.3999577 0.8879118 0.18701763 15.5
-6.0744143 1.0177883 0.13287747 27.128571
-5.7378645 0.7524966 0.15128794 11.666667
-5.4530191 0.60727 0.14659202 30.729443
-0.9397788 -1.3950193 0.16444682 0
-0.58108807 -1.7248702 0.11515452 19.85688
-0.53443837 -1.9118505 0.11573628 22.503592
0.57612598 -2.1864183 0.026545476 54.833336
0.70429599 -2.3735797 0.12438834 71.42186
1.1492393 -2.5869596 0.12111622 33.98362
1.4009004 -2.5467849 0.11653058 43.044624
-10.261877 3.3667712 0.15656687 1
-10.056846 3.2441306 0.0025641285 1
-6.1890068 1.4311831 0.16969147 31.317175
-6.0773821 1.2882074 0.16727455 32.82143
-5.526082 1.0426089 0.15708211 36.69762
-4.3138247 0.68425882 0.17117731 28.299999
-0.83758998 -1.3528204 0.05175576 0.25
-0.70509744 -1.275031 0.13685422 2
0.2808702 -1.7214279 0.11985172 97.127472
0.35879612 -1.8395482 0.05686814 75.389702
1.6471571 -2.4955149 0.11221945 39.520473
1.9710618 -2.433661 0.1361661 42.008411
-6.34132 1.959954 0.22155759 4.6666665
-6.2042065 1.7501156 0.16552852 44.083332
-5.6967812 1.5681257 0.13222669 6.0833335
-5.4924951 1.5788107 0.18613072 6.9333329
-5.041646 1.4041432 0.1367451 4
-4.8122344 1.2928854 0.14294207 3
-4.3238878 0.90224457 0.41223949 111
2.2136261 -2.3653874 0.1323279 44.127731
2.4927683 -2.3185747 0.13093507 51.284653
2.7307332 -2.4430759 0.14133425 47.672619
-5.8574581 2.1028755 0.2137409 0
-5.6480608 2.0464261 0.14351398 0.22222222
-5.3958797 1.7345843 0.20129807 7
-4.7303953 1.6114323 0.12311131 1.25
-4.4881768 1.5650238 0.16129135 11.614583
2.6666396 -2.188169 0.16351819 54.57143
3.1011872 -2.0589206 0.1275911 63.627743
-4.3267469 1.7004411 0.16046655 4.7166667
-4.0135994 1.6420624 0.16491465 2
-3.591126 1.6080357 0.1665668 27.322916
3.2728727 -1.9780933 0.12854411 69.1903
3.5769441 -1.9542514 0.13695092 53.096264
4.0778947 -2.1011624 0.1285359 43.947586
4.2143106 -2.082058 0.07009995 37.5
4.1931729 -1.7732233 0.12354553 5.1647844
4.340023 -2.0182409 0.13352776 25.062
4.7714534 -1.9502178 0.060911976 2.25
4.3704348 -1.5868802 0.12853041 2.2115238
4.664607 -1.6110606 0.11133586 6.0320826
4.9249568 -1.8018687 0.17325592 12.672365
5.3300071 -1.7752564 0.19388294 12.555554
-1.6293149 2.0921082 0.35777906 45
-0.013506174 1.2442449 0.14294285 33.980476
0.030120134 1.1962273 0.14689553 37.541668
3.9063306 -0.59881318 0.056356363 42.346352
4.1199026 -0.7116549 0.064671919 30.754595
4.8119946 -1.4671915 0.089871839 8.6071434
5.188302 -1.4652508 0.17410071 35.701881
5.5808802 -1.5925089 0.13017336 36.13348
-1.4041665 2.1239734 0.24842241 48.46875
-1.1704755 2.1827254 0.20045312 39.009258
-0.25017619 1.6338021 0.13197611 48.206478
0.030848503 1.5031532 0.1494575 46.960938
0.10106039 1.3429039 0.098811522 27
3.696141 -0.18819013 0.21278241 28.333334
3.9198031 -0.58998621 0.074946858 22.690477
4.0641298 -0.6619091 0.085940674 29.166668
5.1348486 -0.89269209 0.28759214 20.992409
5.4953375 -1.1394134 0.15800402 46.453705
5.5525246 -1.3067276 0.1627982 48.757309
-0.88705707 2.2449317 0.32451442 39.266666
-0.42724538 2.3546352 0.15191455 29.593405
-0.21798348 2.193532 0.1699193 13.75
0.029222965 1.8898528 0.13242783 72.369965
3.9487658 0.15972778 0.088207334 61.347275
4.0221453 0.074226469 0.091361731 61.867474
5.3371172 -0.5124855 0.15860032 60.949749
5.4038534 -0.69163287 0.15497763 51.721714
-0.31458831 2.4223139 0.15072493 25.436729
-0.039926291 2.4815259 0.1479149 24.344198
0.33398724 2.1911824 0.17084153 8.1397305
3.5837626 0.86632633 0.058599669 20.379961
4.1665411 0.24381992 0.25236169 20.46875
5.1851168 0.04611674 0.15669799 44.571213
5.2849245 -0.21204673 0.15801275 55.109913
0.22069049 2.5659821 0.1460529 36.705555
0.51132071 2.6526563 0.14479929 46.228283
3.5308197 1.1553186 0.071341887 1.6527778
3.7498722 1.0084198 0.14740247 37.148514
3.8999527 0.90400338 0.14857365 28.091669
4.461668 0.85121739 0.061068401 11.664104
5.1859283 0.16977966 0.15718088 49.185951
0.76427138 2.7331331 0.1219379 53.444447
1.0273583 2.7976451 0.14389378 52.181614
1.3195679 2.8612342 0.14378841 38.411114
3.419095 1.8196163 0.054473586 2.557143
3.7046461 1.7132115 0.076226741 48.883797
3.7350473 1.3043915 0.1315309 2
4.4134617 1.1718892 0.077563599 4.9562635
4.5296631 1.0145041 0.077654779 5.8392859
4.9539223 1.0800352 0.18958522 28.947001
1.567518 2.9344358 0.14506751 48.24205
1.8922688 2.995657 0.14638506 53.474586
3.4468117 1.9757006 0.063140392 4.8761907
3.6949055 1.8752465 0.15020753 29.424564
3.9669948 1.9260798 0.27248693 0
4.8805151 1.3495001 0.16789587 56.332592
4.9353399 1.1521299 0.19062801 50.974403
2.137423 3.0442123 0.1481546 53.786613
2.4265325 3.1299088 0.15183952 48.790062
3.4075298 2.6673787 0.06959857 18
3.5327249 2.5377309 0.14371559 32.412457
3.847445 2.3512166 0.28064305 2.0416667
4.2691369 2.2249918 0.17716038 3.6921535
4.5119324 1.9771831 0.43397263 1
4.8232388 1.6874574 0.37214461 54.479164
2.6733432 3.1993318 0.15547517 40.943062
3.0086408 3.2599447 0.16009255 41.847305
3.7980442 2.7223639 0.22476599 7.7666664
3.9002032 2.5321321 0.23939385 0
4.4055743 2.4372618 0.18252483 4.7283859
3.2506433 3.3466327 0.16508175 39.705948
3.4977858 3.4425714 0.17151298 34.740902
4.0490861 3.0820577 0.17624597 1
4.0649223 3.0006878 0.16674718 1.1190476
4.6030636 2.6439717 0.2486928 0
3.7443018 3.5298369 0.28533894 45.838093
4.1601253 3.5856042 0.25666112 41.07365
4.3246241 3.5134614 0.40760326 56.166668
3.1858454 6.4125686 0.16576205 1.8333334
3.1642895 6.4874673 0.16701499 2.9166667
-10.994304 -5.1152024 0.45885527 1
-10.855968 -4.6542096 0.53283626 1
-10.791075 -4.7594743 0.45040286 0.66666669
-10.231118 -5.0141735 0.6329366 4
-10.130047 -5.0278006 0.62806368 3
-9.8474846 -4.9473348 0.72979593 1
-9.540719 -4.9108062 0.60120457 11.5
-8.9548855 -5.0864778 0.47224697 11.5
-9.0420551 -4.8337588 0.57960004 12.166667
-9.7038717 -3.8942719 0.59708732 21.966667
-9.7587337 -3.3069158 0.48491195 21
-9.718894 -3.7238965 0.48596928 9
-9.9482136 -2.7827377 0.59951991 19.25
-9.8958883 -3.0568886 0.59885728 19.6
-10.907399 -1.9177911 0.52263892 1
-10.73938 -2.0371435 0.63233912 0.66666669
-9.9564886 -2.5063844 0.59868979 20.15
-10.909971 -1.7744313 0.52269959 1
-10.704317 -1.7479346 0.63046622 0.5
-9.9672689 -2.1995711 0.59803373 20.75
-10.757127 -1.3736067 0.74833739 0
-10.506751 -1.4979579 0.62145209 22
-9.7346277 -1.2237248 0.58629799 1.4166667
-4.0739698 -4.143517 0.43119794 24
-9.1377306 -0.98847485 0.55943018 1.625
-4.8326449 -3.2345626 0.53965259 1.25
-4.7913918 -3.3165169 0.53930938 9.833333
-4.164887 -3.5572546 0.42192665 1
-3.1086903 -4.0442872 0.54044986 0
-2.9115086 -4.0038238 0.52623671 3.5
-10.00039 -0.11398973 0.60185337 23.916668
-9.2899847 -0.44913876 0.5677911 1.5
-9.2105465 -0.70999396 0.56341326 1.7
-4.2670188 -3.1406009 0.50352818 1.5
-2.6215229 -3.9001729 0.63067448 4.125
-2.337563 -3.8442719 0.48348957 6
-9.9660101 -0.018086791 0.70904005 10
-9.6745052 0.048822731 0.58776754 11.333334
-9.3263235 -0.32786185 0.56988341 1.5
-2.0970888 -3.7571738 0.58193767 10.25
-1.810276 -3.6661232 0.5537501 12.5
-9.3244495 0.14113566 0.57240838 9.75
-1.5188324 -3.5788512 0.52700013 15.833334
-1.3252034 -3.5232899 0.50883687 25.25
-8.2229986 0.42120829 0.61742121 13
-1.0225921 -3.4351916 0.57707644 34.166668
-0.66099691 -3.369626 0.66866016 37.799999
-8.0091991 0.47944084 0.60632664 13
-7.7405977 0.54848838 0.59238875 14
-0.45469165 -3.296525 0.64181948 17.625
-0.14674425 -3.2386901 0.60455197 20.197918
-7.4864759 0.61037517 0.5792163 14
-7.1448498 0.69685495 0.56160396 15
-2.4689708 -1.7009043 0.42341888 0
-0.10896349 -2.6940327 0.64610559 47
0.08033061 -2.973985 0.44863287 41.333332
0.44701719 -3.0687244 0.53114867 18.200001
0.63705492 -3.0344291 0.60797012 16
-7.0084581 0.73250186 0.5546093 15
-6.6730232 0.81457055 0.53741866 15.75
-5.4668694 0.16631851 0.55748773 20.5
-5.2935576 0.16126826 0.54677528 28.107143
-2.3516736 -1.5237932 0.41163924 1
-0.43351412 -2.2076118 0.53661418 9.083333
-0.23789191 -2.4622712 0.53568918 14.590278
0.10421181 -2.655863 0.51610059 18.525
0.63980663 -2.6691289 0.67840815 17.625
0.93945527 -2.9289799 0.69131082 16.058334
-10.416848 3.2182264 0.54289782 1
-6.4061155 0.88628566 0.52387381 17
-6.0650854 1.038334 0.60856956 19
-5.5491128 0.85309505 0.66538197 8
-5.4147406 0.57409501 0.65090907 18.285715
-0.58959341 -1.747111 0.52395141 18.651787
-0.5442698 -1.8985208 0.52749425 18.16111
0.77405572 -2.4942491 0.63205236 50.181816
1.1343528 -2.6156561 0.61307943 28.5
1.4144464 -2.5795503 0.57899046 40.078262
-6.1779709 1.4588492 0.62261492 20.6
-6.1323137 1.2433952 0.7170285 30.333334
-5.5889506 1.054796 0.57674557 21.375
-4.3357196 0.67647886 0.56914365 13
-0.78455734 -1.3152497 0.42853108 4
-0.71543717 -1.2700516 0.41924706 1
0.18759394 -1.6313844 0.60161954 64.405983
1.6591618 -2.5179231 0.54728752 36.950714
1.9179027 -2.464453 0.5200035 42.101448
-6.3169966 1.9953971 0.64244229 2.5416667
-6.2539988 1.7791424 0.63403976 23.5
-5.4805226 1.4773525 0.67228407 1.6666666
-4.8590608 1.274129 0.62058884 1
-4.8181462 1.2912672 0.44476596 2
2.2146673 -2.384351 0.58323509 42.07143
2.49629 -2.3384068 0.57120419 42.857143
2.7520351 -2.5035851 0.52564943 24.107143
-6.2978897 2.2124658 0.54003751 0.75
-6.0176163 2.2275817 0.52576756 0
-5.4010487 2.0863442 0.4907451 0
-4.2902656 1.6219118 0.58623409 0
3.099237 -2.0770228 0.53853077 35.258064
-4.5076528 1.7867723 0.60697067 0
-3.90137 1.6286665 0.55748034 0
-3.5574927 1.6253929 0.66113114 25.916666
3.2874441 -1.9899309 0.53933746 54.903225
3.6220198 -1.9514763 0.58039033 41.660713
4.1196494 -2.0867901 0.58859509 40.54525
4.1239529 -2.0292711 0.57687193 41.25
4.4577131 -1.9999768 0.63378286 29.607639
4.766016 -1.933535 0.55853724 21.714285
4.6368713 -1.6133145 0.73024887 14.255814
5.0190449 -1.8607703 0.59179425 19.354839
5.3338494 -1.7801868 0.5384565 22.255554
-1.6603875 2.0839019 0.60867941 65.75
0.045014143 1.2129699 0.54408884 26.666666
4.9797435 -1.3303316 0.78309178 10.384615
5.0651116 -1.32885 0.80376172 10.625
5.5657883 -1.6174992 0.56302643 29.763889
-1.4335098 2.1193526 0.58826542 58.18182
-1.1378953 2.1948166 0.69312584 50.522728
-0.54427433 1.9756162 0.49127424 0.33333334
-0.3039217 1.8271973 0.45707944 20.666666
5.0635729 -0.92631948 0.77368355 15.409091
5.3412352 -1.0381906 0.71667075 25.738094
5.544342 -1.3049092 0.54470366 36.105263
-0.8593502 2.289072 0.79424262 16
-0.58082414 2.3203259 0.64247084 0.28947368
-0.31928897 2.0695505 0.69384962 1
4.8960853 -0.34146404 0.71134275 22.125
5.1957111 -0.54253459 0.66751462 29.008951
5.4294729 -0.74278307 0.60103011 41.700001
-0.35446167 2.4366007 0.62870479 10.738095
-0.057920694 2.4824507 0.60570318 22.286766
0.25915194 2.2504303 0.64652157 9.333333
4.8223572 0.21235606 0.70834446 6.9545455
5.0399065 0.029657245 0.63552666 29.473215
5.2855568 -0.17221321 0.57190013 42.717949
0.22062278 2.5666051 0.58959126 33.375
0.52196276 2.6448035 0.57493812 43.447369
4.5945716 0.83581066 0.70947939 1
4.8046808 0.40965256 0.717758 5.347826
5.1752191 0.27809694 0.56379575 49.944443
0.76379097 2.7314634 0.4656817 55.333332
1.0306255 2.7840426 0.55941796 47.528572
1.3219916 2.846988 0.5528546 23.571428
4.5674109 1.0497526 0.73315972 22.924999
4.9551096 1.0693842 0.57837546 24.846153
1.5667584 2.9166074 0.55397803 45.864681
1.8924789 2.9836018 0.55521321 49.472549
4.607688 1.623333 0.83641726 4.4545455
4.75667 1.4310251 0.70682591 30.770834
4.9230046 1.1612129 0.58172631 56.333332
2.1389492 3.0385237 0.56036806 49.625259
2.4320359 3.1222804 0.57312351 46.98077
4.4388618 2.2467957 0.45414236 1
4.6847334 2.0944347 0.65741283 46.222221
4.8033209 1.6644763 0.61819661 42.833332
2.6826217 3.1879961 0.58585733 36.042854
3.0031395 3.2597785 0.60448718 36.518475
4.1307292 2.8362339 0.70880491 27.6
4.5729237 2.5539281 0.60222048 49.700893
4.6404486 2.2626364 0.67537445 45.916668
3.246244 3.3271582 0.62299883 39.645836
3.4964428 3.4251928 0.64840287 40.278461
3.9129603 3.0819836 0.73174435 12.952381
4.1918039 2.8824899 0.72236913 14
4.516408 2.7604735 0.62393278 20.888889
3.7737446 3.5245576 0.67745447 63.444443
3.9859178 3.5626154 0.69409126 61.916664
4.3648896 3.387418 0.57182336 55.176472
-10.289743 -5.7285089 1.0889161 2
-10.88605 -5.1678681 0.95096517 1
-10.471837 -5.3169036 1.090572 8
-10.360524 -5.6532626 1.0919294 7
-10.867403 -4.6870074 0.77799737 1
-10.757316 -4.7861114 0.93653673 1
-10.670788 -4.218092 1.0809439 1
-10.539874 -4.2516437 1.0718552 1
-10.682429 -4.1222749 1.0800257 1
-10.439131 -3.5006845 1.0513477 7
-10.416359 -3.4011452 1.0481365 12
-9.9529657 -3.2208891 1.0105155 16
-9.9645443 -2.7968662 1.0059108 16.666666
-9.9586134 -3.0187163 1.0082126 16.857143
-10.860603 -1.9142905 1.0672415 1
-10.81745 -2.0485203 1.0646911 1
-9.9625244 -2.5072474 1.0026994 18.1
-10.859097 -1.7709839 1.0664231 1
-10.667796 -1.6852274 1.0512631 1
-9.964138 -2.2220926 1.0002351 19
-10.518859 -1.5001349 1.0390974 16.333334
-9.7516117 -1.2867671 0.97907937 1
-9.5677462 -1.2340736 0.96471965 1
-9.2140341 -1.0080173 0.93704385 1.8571428
-4.8217063 -3.2328119 0.95078468 1
-4.8081512 -3.2713597 0.95090795 7
-10.011743 -0.12618935 1.0014163 18.5
-9.3745842 -0.48048502 0.95027226 1.4285715
-9.2887812 -0.74238139 0.94297457 2
-4.2783351 -3.1073508 0.88590217 1.3333334
-2.7304659 -3.8925142 1.1402292 1
-2.3752127 -3.8732848 1.0871145 3.6666667
-9.651207 0.036949962 0.97439206 9.5
-9.4159861 -0.31685096 0.95409995 2
-2.0268259 -3.7473319 1.0245976 15
-1.7882948 -3.6806376 0.98418069 12.5
-9.2961416 0.12866104 0.94743466 8
-1.5094945 -3.6056449 0.93767589 18.75
-1.2553957 -3.529407 0.8948589 22
-1.0638931 -3.4660041 0.86215109 30.333334
-0.75396848 -3.3943002 0.99994749 21.666668
-0.47877192 -3.3053181 1.1238331 8
-0.14502192 -3.2222159 1.0489401 9.1428576
-5.6629095 0.047534078 0.99659771 35
-0.17270494 -2.6543348 0.94777238 24.666666
0.010428905 -2.7063737 0.92235231 12.333333
0.5272336 -3.0423043 0.90356725 10.5
-5.4588513 0.22873303 0.9745158 25.444445
-5.2998629 0.17869779 0.95493925 32.5
-0.42759538 -2.255738 0.93586636 5.5
-0.29827404 -2.4717948 0.94217914 8.75
0.2292006 -2.7340181 0.88827783 15.2
0.51736188 -2.7933104 0.85287732 20
0.80619514 -2.9712648 0.8486293 12.285714
-10.464693 3.2526543 1.0911316 1
-5.4147782 0.61949754 0.97556335 35.666668
-0.59159756 -1.7387321 0.90636808 19.307692
-0.55354118 -1.8983847 0.91589707 17.125
-10.472842 3.3517332 1.0943639 1
-6.1921196 1.4273888 1.0861226 22.714285
-6.1558714 1.2587636 1.0771507 43.5
-5.5059848 0.97297454 0.99380994 40.42857
-8.7073994 2.9731271 0.95240885 1
-6.274044 1.7053435 1.1040441 9
-5.5922747 1.3863832 1.015036 0.5
-4.888854 1.383472 0.93337238 3.2
-4.9846249 1.9283402 0.9640404 1.6666666
-4.9334588 1.6909275 0.94916284 8.4615383
-3.5843973 1.5958792 1.1657295 21.6
-1.648972 2.087049 0.88807583 56.333332
5.2371559 -1.4979328 0.86296344 12.384615
5.4535966 -1.5047821 0.91805601 8.1999998
-1.3752213 2.1299775 1.0420065 48.965912
-1.1856186 2.1797917 1.0131415 49.133331
-0.87880182 2.2489352 1.1485014 47.555557
-0.52302861 2.332619 1.091857 35.789474
0.15954041 1.9904046 0.89710975 7.5999999
-0.32261539 2.4106615 1.0681778 32.75
-0.0073304176 2.477571 1.0255567 19.238094
0.35034609 2.325346 0.93360263 19.299999
0.53048873 2.6211319 0.97287381 42.864864
0.77320135 2.6959205 0.95768136 42.5
1.0315291 2.7547684 0.94306427 43.325001
1.2964514 2.8295069 0.93594557 32.166668
1.5564291 2.8898861 0.93257999 40.545456
1.9049582 2.9612365 0.93365526 44.190475
4.7956033 1.5383012 0.86157018 6.3333335
2.1556115 3.0284641 0.94518632 42.049999
2.4509234 3.1066356 0.96543592 43.366665
4.5168171 2.2086177 0.93407357 19
4.6023197 1.9959488 0.90679091 19.8125
4.7208347 1.6857893 0.87091625 1
2.698802 3.1729159 0.98734933 36.200001
3.0135922 3.2519245 1.0209979 35.142857
4.2606564 2.7155976 1.0058186 23.444445
4.5159802 2.5104966 0.99947113 38.63158
3.2485318 3.3162014 1.0511699 38
3.5108232 3.3945558 1.0913446 43.689655
4.4010582 3.1437197 1.1262332 12.5
4.4825363 2.7458935 1.0459981 45.833332
3.782227 3.5006182 1.1422895 53
4.0603623 3.5548224 1.1850137 60.862068
4.3457837 3.353909 1.1693265 65.736839
5.0543737 22.777676 1.09429 4.5
-11.603902 -5.2780938 1.1719136 1
-11.569413 -5.3741188 1.1716162 1
-9.9765768 -2.8057044 1.5263718 22.666666
-9.9648962 -3.0262098 1.5296328 22
-10.435408 -2.0926898 1.5686738 21.5
-9.9754677 -2.5150769 1.5209635 23
-10.442932 -1.8007342 1.5664016 24.888889
-10.442608 -2.0251865 1.5687041 24
-9.9773178 -2.2054973 1.5162946 23
-10.437919 -1.4178185 1.5627828 31.375
-9.9949026 -1.0143216 1.5084684 23
-9.9898872 -1.118957 1.5081826 23
-3.9528341 -4.2706819 1.3577969 17
-9.9966888 -0.71217191 1.5084672 23
-10.008475 -0.15148227 1.5116215 23.666666
-10.002013 -0.34496355 1.5098881 23
-2.2741418 -3.8259132 1.5681819 1
-9.9929171 -0.021109641 1.5106384 12
-9.6875334 0.054594755 1.4749306 12.333333
-2.0588365 -3.7476766 1.5108484 13.333333
-1.7758884 -3.6601229 1.4382809 11.666667
-9.4082222 0.1285089 1.4423653 12
-9.2954063 0.16731194 1.4293196 5
-1.5782421 -3.6072567 1.3893584 11.6
-1.3099627 -3.53249 1.3229947 12
-1.0283704 -3.4553034 1.2544502 18.833334
-0.85532713 -3.4038002 1.2120266 23
-6.1616364 1.0161384 1.5876914 34.714287
-6.193985 1.2661312 1.6020097 45
-6.1830311 1.2161539 1.5982406 48
-5.4151716 1.4766265 1.474622 1
-4.8851008 1.4095348 1.3794844 7
-5.1060491 1.7533059 1.4347061 1
-4.9379339 1.5841472 1.3970776 2.4285715
-4.7220459 1.3974783 1.3506358 3
-4.5205789 2.1345174 1.3575674 1
-4.3272786 1.8427815 1.3070167 0.33333334
-4.1811414 1.5859315 1.266965 10.333333
-4.3111558 2.1122949 1.320958 0
-1.6817489 2.0729783 1.2966666 49.166668
-1.4726784 2.106432 1.2543355 46.727272
5.0147524 22.854452 1.5053815 2
5.0997372 22.880882 1.5079169 5
-10.911453 -5.1165023 1.699837 1
-10.402858 -5.3891826 1.6540049 19.5
-10.916749 -4.6786599 1.6848735 1
-10.885968 -4.8477263 1.6872417 1
-10.24292 -5.0757775 1.6238414 1
-9.9781046 -5.0735426 1.5943942 1
-10.808887 -4.2385874 1.6585219 1
-10.806041 -4.0653014 1.6530185 1
-10.433522 -3.6001816 1.5975595 10.777778
-7.4220171 -5.0660272 1.9654515 12.5
-10.432748 -3.3643878 1.5915203 12
-7.65026 -4.3556533 1.9530392 4
-7.4464159 -4.5580339 1.9332622 4
-7.2668591 -4.3396668 1.8890294 8.5
-7.0554657 -4.5082083 1.8660641 10
-6.2759724 -4.5853658 1.7459116 14
-3.5215435 -4.1752515 1.8890886 1
-2.9238119 -4.0033255 1.733703 1
-8.5392866 -0.81386149 1.9869946 3
-8.5404158 -1.0048392 1.9882895 13.666667
-7.8181515 -1.3926599 1.8641117 15.666667
-2.4985871 -3.8869178 1.6250433 2
-2.4511137 -3.8797026 1.6138653 3
-4.6770062 -2.2323222 1.9636166 5
-4.3811502 -2.7074807 1.9248347 2.5
-8.1638489 -0.17578724 1.9209642 8
-4.5454082 -2.1705155 1.9260892 3
-8.4653664 0.31903479 1.9801407 14
-8.2790356 0.36623886 1.9476997 16.5
-8.1162348 0.41141906 1.9194645 17
-7.7041245 0.47132841 1.8472242 30.25
-4.7419109 -1.1036389 1.9290705 4
-7.5238266 0.5618608 1.8169267 16
-7.1880836 0.6486907 1.7591881 13.4
-4.8851624 -0.47331697 1.9585162 6.25
-6.6100979 0.7970736 1.6603888 15.333333
-6.3325291 0.87244141 1.6133543 22
-6.2314196 1.4202825 1.6145735 42.5
-4.9350486 0.65107512 1.9931141 15
-4.2636261 0.8321861 1.8260071 31.666666
-6.7764702 3.107161 1.8002985 1
-3.6122131 1.5646726 1.7080481 19.666666
-3.8504233 1.990247 1.8060129 0.625
-3.4599662 1.68697 1.6803597 0
-2.2379251 4.8160753 1.8926033 2
0.12933207 6.4942083 1.9790174 5
3.1856663 6.8609276 2.0031903 2
3.2128868 6.8889637 2.0117016 1
3.5426655 10.107209 1.9965143 3
5.0039892 22.702555 2.0379188 3
-10.299615 -3.5163631 2.3592331 36
-10.290355 -3.6870983 2.3647244 36
-10.296865 -3.2140715 2.3473208 36.5
-10.053366 -3.3641236 2.3106291 36
-9.6292124 -3.61865 2.2479718 28
-10.300841 -2.5952652 2.328187 36
-10.296803 -2.8109875 2.3338754 36
-10.305204 -2.3468919 2.3226075 35.599998
-9.6592531 -2.7830441 2.2214558 28
-10.211229 -2.0173252 2.2986445 29.5
-4.3310447 -4.155725 2.0683787 23
-10.297472 -0.8067925 2.3003159 30
-4.4035954 -3.809653 2.0431287 8.666667
-4.336998 -4.1138372 2.0644083 17
-10.288075 -0.54865348 2.2985556 34.666668
-10.044694 -0.71199393 2.2550671 35
-8.6225224 -1.258451 2.0051391 21.5
-4.6031218 -3.2599742 2.0304601 13.181818
-4.4441295 -3.5357723 2.0207999 5.5
-10.293765 -0.27987817 2.3002923 35.666668
-8.6358013 -0.85696054 2.0043707 5
-8.5446215 -1.0959215 1.9897318 16
-4.7673841 -2.7623055 2.0259056 12
-4.6751108 -3.0489497 2.0276835 14.2
-9.6936712 -0.0095659196 2.1951509 13.5
-4.9499249 -2.2451944 2.0343225 13.285714
-4.8609557 -2.5132265 2.0297303 13
-9.1590261 0.13833854 2.1013498 14
-8.8292398 0.22395977 2.0436187 15
-5.0902958 -1.7281379 2.042161 12.071428
-5.0334668 -1.972598 2.0394073 12
-8.6453199 0.27412722 2.0115402 14.5
-5.1849627 -1.1752568 2.0471535 12.333333
-5.1458206 -1.3836024 2.0430937 11.833333
-5.2226772 -0.82597327 2.050477 14.947369
-5.3090963 -0.25430924 2.071069 43.083332
-5.2494574 -0.56211245 2.0548232 26
-10.220424 2.4792864 2.355231 2
-5.4429188 0.26478562 2.1143062 44.599998
-5.3743258 0.016424179 2.0912259 45.25
-5.5894694 0.86427069 2.1730044 34.5
-5.5091586 0.56715345 2.1405177 39.57143
-5.722846 1.3781105 2.2340612 38.25
-5.6652088 1.1604996 2.2071679 37.25
-5.7896576 1.661624 2.2693856 36.142857
-5.4567657 1.9602146 2.2061014 0.5
-5.2538843 1.9739554 2.1558619 1
-5.9649134 2.5698664 2.3859916 0
-10.196659 -5.5066481 2.4473662 33.200001
-10.264091 -5.055337 2.4300618 32.888889
-10.272347 -4.3711543 2.3935454 18
-10.261465 -4.58429 2.4029484 32.25
-10.279729 -4.1300879 2.3829551 33.555557
-10.277927 -3.8878267 2.3712888 36
-6.1373892 2.6624489 2.4375117 0
-7.0117445 -1.7872683 -1.2158237 2.5
-6.9719343 -1.9647231 -1.2189939 2
-7.0011234 -1.5841185 -1.2054464 2.5
-6.4289799 4.2392168 -1.114686 1
-6.1284952 3.9661512 -1.2063295 0.66666669
-10.101864 -4.9652953 -1.0408828 5.6666665
-8.5910063 -4.5330625 -1.102286 14.333333
-9.8739681 -3.2874002 -0.88600582 17.6
-8.4683428 -4.3579631 -1.1505399 1
-10.205463 -1.8337678 -1.1890599 2
-10.361893 -1.2043538 -0.80856991 31
-9.75208 -1.5689731 -0.99415582 22
-9.5706615 -1.8416054 -1.0594313 4.5
-9.7171383 -1.5201733 -0.98968405 5
-9.4885559 -1.535771 -1.1119937 5.25
-6.5295057 -3.7365594 -1.0826793 0.25
-6.3195467 -3.8957338 -1.072037 0
-9.3140793 -1.0307236 -0.87344086 17.25
-9.2290688 -1.2925004 -1.0113845 4.875
-6.3013535 -3.5954223 -1.0506607 0
-6.1814489 -3.6190925 -1.0401183 0
-9.1902761 -0.80686426 -0.85807222 2.5
-8.913413 -0.89552146 -0.90356547 7.6111107
-8.6695719 -1.0842113 -0.95439774 2.5
-8.2493715 -1.2184815 -0.98592144 2
-8.7865524 -0.3622421 -0.88076228 29.5
-8.7214031 -0.49197903 -0.94361919 15.75
-8.2969456 -0.89995116 -0.91746539 1
-8.255311 -1.1248162 -0.98339838 2
-6.9683867 -1.8028711 -0.88863599 41.666668
-6.3278303 -2.1539016 -1.1479582 3
-5.1511021 -3.2622561 -1.073179 0
-4.8210783 -3.3987007 -0.96776921 1.6666666
-8.1742144 -0.56633723 -0.89701045 5.166667
-7.9197083 -0.60995734 -0.93653899 34
-7.3346996 -0.87509525 -1.030857 0
-7.0062408 -1.5937548 -0.8839252 44
-6.4241896 -1.9107333 -0.84295422 32
-6.3961296 -1.9832948 -0.99532956 20.25
-5.2925234 -2.6091266 -1.0462079 0
-4.7448616 -3.3226056 -0.87722373 0
-4.293642 -3.2677512 -0.97281653 1.5
-7.9948826 -0.24573681 -0.87402374 25.333332
-7.3679228 -0.44250035 -1.0218319 0
-7.3403797 -0.64123583 -0.89211732 1.6666666
-7.1421461 -0.89533532 -1.0107745 0
-5.9066877 -1.6560414 -1.0708576 1
-4.1897564 -3.2221427 -0.95719522 1
-7.2816439 -0.19731997 -0.93723571 3.875
-6.951683 -0.37068421 -0.83994126 22
-6.0170603 -0.98737592 -1.0574843 0
-5.8113461 -1.2891557 -1.0430081 0
-5.417902 -1.5490432 -1.0045394 1
-4.9834652 -1.8305686 -0.9857251 34.175213
-4.9598265 -1.9842216 -0.96894807 52
-3.8348758 -2.7184901 -0.87798667 0
-6.8733845 -0.032974839 -0.89195734 25.958334
-6.0494709 -0.54092336 -1.0480419 0
-6.0348358 -0.7971741 -1.0535036 0
-5.1455564 -1.1916945 -0.88061541 42.618423
-5.0549622 -1.5468774 -0.81059861 62
-4.5180159 -1.7044854 -0.89931732 0
-4.0549212 -1.9915841 -0.85750645 0
-3.6817534 -2.1932063 -1.0047568 1
-3.5667183 -2.4500523 -1.0074389 1
-3.3909447 -2.7615671 -1.0075108 1
-1.9946764 -3.685792 -0.91554409 15.142858
-6.0839148 0.053588063 -0.95444858 3.625
-6.0570717 -0.23254301 -1.0407099 0
-5.2114067 -0.91959053 -0.80391896 55.75
-5.1966705 -0.98452491 -0.80456597 56
-3.9017551 -1.6287997 -1.0012611 1.3333334
-3.7449596 -2.0262713 -1.002555 0.85714287
-2.3144672 -2.9498701 -0.87493521 24.75
-2.206712 -3.2329206 -0.89049095 21.875
-6.7963762 0.92518055 -0.80108202 15
-6.6220818 0.96623445 -0.78442866 16
-5.806777 0.39233965 -0.91601169 19.5625
-5.682023 0.20725954 -0.90446329 37.375
-3.9778063 -1.0910089 -0.98549217 1
-3.9133608 -1.3884741 -0.98975807 1
-1.9301093 -2.5172167 -0.99653453 1
-1.7207835 -2.8577418 -1.0025482 2.3333333
-1.5535045 -3.0667748 -1.0033044 1.2
-1.2956891 -3.1909595 -0.97966009 2
-6.3862324 1.0254271 -0.76192725 17
-5.8387814 0.52445614 -0.9177084 18
-5.2804804 0.3203693 -0.8554464 39.333332
-4.044445 -0.56846297 -0.97626501 1
-4.0173893 -0.83593744 -0.98136681 1
-2.2959917 -1.7245778 -0.98411304 1
-2.1535881 -1.9824586 -0.98076755 2.2222223
-2.0742018 -2.245064 -0.99215645 1
-6.1230984 1.3994412 -0.79752249 29.25
-5.6473398 1.1778945 -0.9698531 18
-5.285078 1.0846568 -0.92464656 8
-5.0932474 0.62021327 -0.83039111 14.333333
-4.9266443 0.56725878 -0.81004441 11.166666
-4.0784636 -0.00066766143 -0.96715778 1
-4.0746641 -0.2483997 -0.97180551 1
-2.4767272 -1.1723464 -0.97906595 1
-2.3201063 -1.4384705 -0.96642584 1.5833334
-1.9909465 -1.6853924 -0.92342007 8.666667
-5.6016912 1.4445711 -0.96406925 4.5
-5.1981077 1.3207926 -0.83868939 8.166666
-4.9756145 1.1711134 -0.81262589 10.55
-4.4172974 0.78701186 -0.81684524 4.5714288
-4.2242785 0.60515434 -0.88575393 1.5
-4.0616627 0.36683512 -0.95945626 1
-2.5687387 -0.63957906 -0.97048682 1
-2.5293376 -0.91703284 -0.97502571 1
-0.23940182 -2.2828391 -0.94420272 15.666667
-0.042571783 -2.494555 -0.94584799 11.142858
0.18586469 -2.6985626 -0.94550157 14.666667
-6.7903585 3.2455931 -0.73863161 1
-4.9423456 1.5043721 -0.80841237 15.025
-4.6471357 1.5860586 -0.84646302 0
-4.0027905 0.85815179 -0.94859862 1
-2.5916364 -0.08497709 -0.95946807 1
-2.5905597 -0.34333372 -0.96513134 1
-0.89647174 -1.2714074 -0.95412928 3
-0.7760005 -1.4201918 -0.93942863 17.130434
-0.53049779 -1.7804589 -0.9261415 34.07143
-0.31793594 -2.1361198 -0.93470311 26.733334
0.051404238 -2.3385282 -0.89261824 13.875
0.40711963 -2.6044817 -0.88247406 32.541668
0.71084297 -2.6795506 -0.84814304 40.086956
-6.6184797 3.3056631 -0.85204786 0.5
-4.522254 1.5920225 -0.83114761 0
-4.0342922 1.5070388 -0.86265367 0.5
-3.938472 1.2258755 -0.94102907 1
-2.5711534 0.2812109 -0.95191669 1
-1.0375335 -0.71610212 -0.94621086 4
-0.96736526 -1.0283899 -0.95059514 3.7692308
-5.9777193 3.626893 -0.88785738 4.5
-3.9001696 1.6568754 -0.84767729 0.5
-3.5743535 1.7112225 -0.80597937 28.299999
-2.5072496 0.72881901 -0.94196457 1
-1.0612314 -0.42118603 -0.93936121 4.2222223
-6.3587627 4.2274976 -0.7806536 2.3055556
