# .PCD v0.7 - Point Cloud Data file format
VERSION 0.7
FIELDS x y z intensity roll pitch yaw time
SIZE 4 4 4 4 4 4 4 8
TYPE F F F F F F F F
COUNT 1 1 1 1 1 1 1 1
WIDTH 72
HEIGHT 1
VIEWPOINT 0 0 0 1 0 0 0
POINTS 72
DATA ascii
1.2813588e-07 4.46068e-08 1.3706912e-06 0 0.031642079 0.0042692008 1.6607611e-13 1.6280621e+09
0.25658673 -0.026206944 0.0056607453 1 0.027363915 0.0088432636 -0.20180258 1.6280621e+09
1.261934 -0.28569269 -0.0028101783 2 0.027212948 0.0090243015 -0.19133067 1.6280621e+09
2.2751842 -0.48169822 -0.0067462926 3 0.02185165 0.0022205345 -0.24719937 1.6280621e+09
3.2578709 -0.75541335 -0.006255467 4 0.016871329 -0.0030958969 -0.3338168 1.6280621e+09
4.2697797 -1.0749428 -0.0062980452 5 0.011306924 -0.0046987236 -0.25052738 1.6280621e+09
5.2478709 -1.3327812 -0.0026409558 6 0.010843843 -0.0055242721 -0.24511558 1.6280621e+09
6.2618871 -1.5659492 0.00086898525 7 0.012801132 -0.0068086637 -0.26400784 1.6280621e+09
7.3200469 -1.8379592 0.0080159307 8 0.019226294 -0.012397468 -0.2239338 1.6280621e+09
8.3753605 -2.0337481 0.0095477644 9 0.013717312 -0.0068765911 -0.17786157 1.6280621e+09
9.4493723 -2.2199218 0.01341446 10 0.011482995 -0.011240208 -0.13865356 1.6280621e+09
10.541125 -2.363276 0.017830517 11 0.013271372 -0.014855734 -0.15103807 1.6280621e+09
11.598886 -2.5447378 0.034863677 12 0.0027552769 -0.015175882 -0.23743871 1.6280621e+09
12.608969 -2.779789 0.045732033 13 0.0031630788 -0.012605305 -0.24154517 1.6280621e+09
13.607285 -3.0049293 0.092593715 14 0.01545856 -0.079071157 -0.2045148 1.6280621e+09
14.639285 -3.1997662 0.15889385 15 0.013264255 -0.061352707 -0.16261441 1.6280621e+09
15.660877 -3.3501821 0.22136652 16 0.014744388 -0.06092352 -0.17347127 1.6280621e+09
16.692636 -3.5545318 0.30196187 17 0.016168064 -0.063622162 -0.21481007 1.6280621e+09
17.686016 -3.7616093 0.39511439 18 0.0081322584 -0.064675644 -0.20464315 1.6280621e+09
18.813635 -3.9905639 0.47190088 19 0.0023857721 -0.066237271 -0.18933223 1.6280621e+09
19.87862 -4.1585636 0.53536034 20 -0.0084217377 -0.070098355 -0.18339851 1.6280621e+09
20.975313 -4.3407035 0.60435158 21 -0.0049391799 -0.079838775 -0.1757631 1.6280621e+09
22.027899 -4.5072618 0.65673769 22 -0.014485775 -0.045019407 -0.19862162 1.6280621e+09
23.056307 -4.7722249 0.68739641 23 -0.01588452 -0.052952234 -0.37328228 1.6280621e+09
23.847113 -5.1923914 0.67061788 24 -0.016626397 -0.019985391 -0.57404596 1.6280621e+09
24.731758 -5.7438025 0.6901806 25 -0.018454736 -0.01877404 -0.71703196 1.6280621e+09
25.267643 -6.2262506 0.71176332 26 -0.026193887 -0.028759632 -0.93116027 1.6280621e+09
25.854395 -7.0677056 0.73634732 27 0.0087049501 0.0040954961 -1.0194193 1.6280621e+09
26.330645 -7.9987469 0.72348994 28 0.021111665 0.004259448 -1.1590194 1.6280621e+09
26.777344 -8.7875586 0.68018132 29 0.024283716 0.0020981589 -0.94249672 1.6280621e+09
27.236694 -9.3040495 0.69256061 30 0.021762557 -0.0042538787 -0.71779388 1.6280621e+09
27.689663 -9.6428099 0.69191849 31 0.027046395 -0.0086740842 -0.50160706 1.6280621e+09
28.201229 -9.8698196 0.70963591 32 0.027220471 -0.013219864 -0.28306225 1.6280621e+09
28.755381 -9.9906206 0.70840013 33 0.027141614 -0.016812349 -0.061974362 1.6280621e+09
28.68919 -9.9837618 0.70036203 34 0.012343105 -0.020990869 0.19334267 1.6280621e+09
28.29579 -10.116388 0.69763708 35 0.005007342 -0.02069629 0.42616889 1.6280621e+09
27.936401 -10.323314 0.6897344 36 -0.0029062759 -0.017004628 0.64910543 1.6280621e+09
27.594 -10.635453 0.68230772 37 -0.0060223243 -0.013415133 0.88693744 1.6280621e+09
27.362812 -10.966623 0.68595254 38 -0.0085872794 -0.01082042 1.1001301 1.6280621e+09
27.199572 -11.323877 0.69001049 39 -0.01190128 -0.0095341364 1.3052772 1.6280621e+09
27.111256 -11.771897 0.6811769 40 -0.012148122 -0.0057993303 1.5177836 1.6280621e+09
27.067858 -12.79177 0.65984762 41 -0.01135681 -0.0037049507 1.4418206 1.6280621e+09
26.940269 -13.501934 0.6530593 42 -0.0098508587 -0.0047354582 1.2292153 1.6280621e+09
26.720324 -14.001372 0.65370101 43 -0.007188593 -0.0057516196 1.0095824 1.6280621e+09
26.464493 -14.387906 0.66422909 44 -0.005615768 -0.0038569376 0.80783409 1.6280621e+09
26.118866 -14.693853 0.65735167 45 -0.0034400434 -0.0055880416 0.60271132 1.6280621e+09
25.716431 -14.945123 0.66188318 46 -0.0032048186 -0.0056059929 0.39517486 1.6280621e+09
24.737906 -15.271119 0.66610837 47 -0.0044367844 -0.0046189977 0.50759053 1.6280621e+09
24.426386 -15.475032 0.66154593 48 -0.0023793334 -0.0040974487 0.72620791 1.6280621e+09
24.166706 -15.736066 0.65937674 49 -0.007298172 -0.001839924 0.94557393 1.6280621e+09
23.97117 -16.052572 0.65864801 50 -0.0075695552 0.00020278306 1.1648606 1.6280621e+09
23.837145 -16.382542 0.65308094 51 -0.0066726333 -0.0025024698 1.4039768 1.6280622e+09
24.016008 -15.409399 0.65616119 52 -0.0054671839 -0.0029551757 1.1933852 1.6280622e+09
24.177227 -15.047652 0.66111469 53 -0.0058494303 -0.0052003334 0.9925642 1.6280622e+09
24.410749 -14.72867 0.65671545 54 -0.0032578404 -0.008477767 0.79185468 1.6280622e+09
24.704025 -14.450824 0.66268528 55 -0.0022267888 -0.0082954783 0.58087331 1.6280622e+09
25.067404 -14.248673 0.66327006 56 -0.0025877103 -0.0089805797 0.36605191 1.6280622e+09
26.054863 -13.979162 0.66448468 57 -0.0019754216 -0.0085587669 0.45862937 1.6280622e+09
26.417763 -13.75987 0.66405821 58 -0.0018196396 -0.010211216 0.71487635 1.6280622e+09
26.699219 -13.46862 0.66081256 59 -0.0044578454 -0.010297824 0.9721328 1.6280622e+09
26.889469 -13.137315 0.66019875 60 -0.0079048667 -0.0091415541 1.2290066 1.6280622e+09
26.990206 -12.757502 0.66142005 61 -0.0091508925 -0.0076200953 1.477519 1.6280622e+09
26.975029 -12.336765 0.67163157 62 -0.010980536 -0.0074927709 1.6849372 1.6280622e+09
26.930565 -11.755389 0.6778149 63 -0.011758173 -0.0092147738 1.4427187 1.6280622e+09
27.036549 -11.289503 0.68630946 64 -0.0073076389 -0.0044720471 1.2337722 1.6280622e+09
26.885729 -11.624572 0.67231131 65 -0.0018847794 -0.0095469058 0.95989013 1.6280622e+09
26.692169 -11.926755 0.67087686 66 0.0043557822 -0.0091136917 0.758955 1.6280622e+09
25.936466 -12.641485 0.66970766 67 -0.00023532627 -0.006722664 0.78337163 1.6280622e+09
25.35261 -13.159962 0.66540194 68 -0.00012354138 -0.0059335451 0.5708977 1.6280622e+09
24.451815 -13.706724 0.64876449 69 -0.0014581343 -0.006131174 0.64508665 1.6280622e+09
23.936451 -14.182708 0.66436845 70 -0.0034377016 -0.0037429298 0.85401696 1.6280622e+09
23.273241 -14.999677 0.65431917 71 0.0012242958 -0.0027517073 0.80005872 1.6280622e+09
