# .PCD v0.7 - Point Cloud Data file format
VERSION 0.7
FIELDS x y z intensity roll pitch yaw time
SIZE 4 4 4 4 4 4 4 8
TYPE F F F F F F F F
COUNT 1 1 1 1 1 1 1 1
WIDTH 70
HEIGHT 1
VIEWPOINT 0 0 0 1 0 0 0
POINTS 70
DATA ascii
1.0085787e-07 9.6539434e-09 -6.869322e-07 0 0.031642079 0.0042692008 -1.2974202e-13 1.6280621e+09
0.28543353 -0.032237154 0.0036902437 1 0.026867213 0.0085271252 -0.21720324 1.6280621e+09
1.2937022 -0.29557925 -0.0015746745 2 0.02625951 0.0099410778 -0.18581098 1.6280621e+09
2.3023782 -0.48408473 -0.010535821 3 0.020957207 0.0022660447 -0.25025967 1.6280621e+09
3.2797139 -0.77062476 -0.007240274 4 0.015353624 -0.0030385889 -0.33770812 1.6280621e+09
4.2983208 -1.098168 -0.012344006 5 0.012167206 -0.0046054758 -0.25135282 1.6280621e+09
5.2708802 -1.3426311 -0.0069422587 6 0.0098832035 -0.005953799 -0.24148442 1.6280621e+09
6.3126917 -1.5747694 -0.00085405889 7 0.013978912 -0.0062507624 -0.26563188 1.6280621e+09
7.3802819 -1.8463497 0.0011764797 8 0.018647157 -0.012397193 -0.22108331 1.6280621e+09
8.4273148 -2.0399876 0.0075497376 9 0.01472347 -0.0047525163 -0.17600143 1.6280621e+09
9.5042696 -2.2295742 0.010935595 10 0.010426878 -0.010307559 -0.13987176 1.6280621e+09
10.594082 -2.3760612 0.019950727 11 0.011525532 -0.01176373 -0.1534148 1.6280621e+09
11.652884 -2.5466566 0.027408687 12 0.0023801371 -0.012866545 -0.23895505 1.6280621e+09
12.66549 -2.7929063 0.03994596 13 0.0049170242 -0.011313041 -0.23861741 1.6280621e+09
13.65646 -3.0123391 0.087750793 14 0.012997218 -0.07570041 -0.20201614 1.6280621e+09
14.699304 -3.2085056 0.14634125 15 0.012237281 -0.059236653 -0.16053766 1.6280621e+09
15.7311 -3.3510957 0.21164529 16 0.014511934 -0.059258781 -0.17724633 1.6280621e+09
16.767515 -3.569217 0.29641479 17 0.015125548 -0.064265758 -0.21516399 1.6280621e+09
17.760872 -3.7647393 0.37537545 18 0.01362796 -0.063759156 -0.20465936 1.6280621e+09
18.741177 -3.9689322 0.41232824 19 0.01155848 -0.061217699 -0.19140044 1.6280621e+09
19.80768 -4.1479406 0.50450516 20 -0.0029523915 -0.072114035 -0.18340512 1.6280621e+09
20.898354 -4.3223429 0.57232648 21 0.0019656818 -0.079213731 -0.17418733 1.6280621e+09
21.938089 -4.4917831 0.61531562 22 -0.0095718764 -0.046995021 -0.19571751 1.6280621e+09
22.932882 -4.7467399 0.62096387 23 0.0017354147 -0.023993257 -0.32983837 1.6280621e+09
23.633648 -5.0542259 0.64363647 24 -0.015053317 -0.0080571249 -0.5491724 1.6280621e+09
24.521765 -5.6042895 0.66243249 25 -0.015598363 -0.016949981 -0.66876012 1.6280621e+09
25.16918 -6.1164951 0.68027765 26 -0.023766929 -0.024906728 -0.8840549 1.6280621e+09
25.776144 -6.9504375 0.69422519 27 0.014272704 0.0064939898 -0.99809623 1.6280621e+09
26.279037 -7.8767228 0.68338239 28 0.01873452 0.0046513882 -1.1470066 1.6280621e+09
26.804657 -8.8195553 0.65776026 29 0.028190348 0.0062933038 -0.92646575 1.6280621e+09
27.271622 -9.3176794 0.64804035 30 0.027138613 -0.00092572439 -0.70045108 1.6280621e+09
27.733654 -9.6618042 0.65708983 31 0.033623882 -0.0063082851 -0.48260269 1.6280621e+09
28.247864 -9.8692789 0.65763909 32 0.031705849 -0.012209647 -0.26496097 1.6280621e+09
28.806307 -9.9860477 0.664832 33 0.031675231 -0.016499009 -0.045453168 1.6280621e+09
28.741772 -9.9638338 0.66287833 34 0.020544613 -0.021415731 0.16213827 1.6280621e+09
28.336697 -10.080255 0.65751809 35 0.010060241 -0.02485857 0.39970598 1.6280621e+09
27.967722 -10.290597 0.6480962 36 0.0010930419 -0.019313008 0.62981081 1.6280621e+09
27.620068 -10.595525 0.63977742 37 -0.0030808814 -0.018143021 0.8670103 1.6280621e+09
27.37727 -10.9235 0.63780856 38 -0.006384314 -0.016479094 1.077426 1.6280621e+09
27.211916 -11.261499 0.63652861 39 -0.009526399 -0.01226763 1.2783895 1.6280621e+09
27.11256 -11.700041 0.63333589 40 -0.011818781 -0.00911038 1.4993402 1.6280621e+09
27.066454 -12.735398 0.61524582 41 -0.0097664176 -0.0054993816 1.4512448 1.6280621e+09
26.943419 -13.441612 0.60086 42 -0.0076303938 -0.0063637514 1.2461723 1.6280621e+09
26.745005 -13.952572 0.60481346 43 -0.0059511322 -0.008034749 1.0296351 1.6280621e+09
26.482697 -14.34091 0.60445625 44 -0.0041299895 -0.005509228 0.82869691 1.6280621e+09
26.154974 -14.663926 0.6062907 45 -0.0030073056 -0.0053272066 0.6231001 1.6280621e+09
25.755991 -14.919357 0.61205965 46 -0.0025461502 -0.0052488144 0.41664371 1.6280621e+09
24.782106 -15.237712 0.60929585 47 -0.0023146151 -0.0053030401 0.48101163 1.6280621e+09
24.459475 -15.433523 0.60606414 48 -0.0024082279 -0.003856427 0.69908267 1.6280621e+09
24.192785 -15.690157 0.61018366 49 -0.0053768433 -0.0033253322 0.91870362 1.6280621e+09
23.987221 -15.997947 0.6149838 50 -0.0059486255 0.00051152677 1.1385782 1.6280621e+09
23.837227 -16.430836 0.60383338 51 -0.0047105225 -0.002894053 1.3769726 1.6280622e+09
24.003658 -15.442326 0.6106714 52 -0.0045696781 -0.0033334945 1.2111297 1.6280622e+09
24.192377 -15.00147 0.61412048 53 -0.003300155 -0.0060596359 0.96912444 1.6280622e+09
24.438711 -14.680916 0.60791373 54 -0.00039913616 -0.0086292662 0.766316 1.6280622e+09
24.743553 -14.411747 0.61601841 55 -0.00066849362 -0.0080948621 0.55467981 1.6280622e+09
25.112305 -14.214578 0.60380441 56 0.0019339615 -0.0091261445 0.33989853 1.6280622e+09
26.099876 -13.947052 0.60808539 57 0.0019346633 -0.0094467811 0.49067613 1.6280622e+09
26.457922 -13.715462 0.60549819 58 0.00042183578 -0.011198536 0.74777913 1.6280622e+09
26.720459 -13.42182 0.6069963 59 -0.0026023055 -0.011590159 1.0035573 1.6280622e+09
26.901381 -13.076294 0.60908782 60 -0.0054282653 -0.01016878 1.2617961 1.6280622e+09
26.992111 -12.700557 0.61713159 61 -0.008179768 -0.007807075 1.5094298 1.6280622e+09
26.936483 -11.685876 0.63194019 62 -0.009655118 -0.013200056 1.413111 1.6280622e+09
27.025896 -11.319273 0.63087386 63 -0.0051052463 -0.009723152 1.1989819 1.6280622e+09
26.848047 -11.674104 0.6247052 64 0.0023414057 -0.01118892 0.90286839 1.6280622e+09
26.098097 -12.478181 0.6158939 65 0.0022442939 -0.010948455 0.77359384 1.6280622e+09
25.29336 -13.188398 0.61555457 66 0.0015296403 -0.0064934287 0.54797941 1.6280622e+09
24.39905 -13.741467 0.60445321 67 0.0012022125 -0.0069938647 0.66711152 1.6280622e+09
23.897446 -14.218577 0.61562699 68 0.00019226376 -0.004341092 0.87272578 1.6280622e+09
23.241217 -15.024495 0.59612864 69 0.0026803825 -0.0040000812 0.79216975 1.6280622e+09
