# .PCD v0.7 - Point Cloud Data file format
VERSION 0.7
FIELDS x y z intensity roll pitch yaw time
SIZE 4 4 4 4 4 4 4 8
TYPE F F F F F F F F
COUNT 1 1 1 1 1 1 1 1
WIDTH 58
HEIGHT 1
VIEWPOINT 0 0 0 1 0 0 0
POINTS 58
DATA ascii
-1.7911547e-06 2.0143552e-06 -9.9936847e-07 0 0.0073915138 0.0017171198 3.2332679e-13 1.6276437e+09
1.0082854 -0.060827419 0.025157873 1 0.010909661 0.0028187246 -0.10177425 1.6276437e+09
2.0564418 -0.20731722 0.035791006 2 0.013692653 -0.0038519779 -0.2423711 1.6276437e+09
2.4107382 -0.30422303 0.032036893 3 0.0051887273 -0.0019563183 -0.45376983 1.6276437e+09
2.4022396 -0.29116261 0.032522462 4 0.019359997 0.014831019 -0.6541903 1.6276437e+09
2.0967402 -0.044146661 0.031156234 5 0.016188165 0.016292935 -0.91534287 1.6276437e+09
1.8781668 0.31743506 0.03383154 6 0.013040159 0.02585936 -1.1859614 1.6276437e+09
1.80786 0.45513499 0.046621345 7 0.0073827002 0.017185031 -1.403228 1.6276438e+09
1.8300759 0.13452472 0.041048523 8 0.0030989517 0.019343613 -1.614822 1.6276438e+09
1.799746 -0.20972909 0.038237564 9 -0.0029475628 0.024142647 -1.849532 1.6276438e+09
1.6764886 -0.56227499 0.029396605 10 -0.0071019321 0.019468689 -2.0897229 1.6276438e+09
1.5947528 -0.6965369 0.020905171 11 -0.0085053658 0.030058391 -2.2908223 1.6276438e+09
1.876527 -0.41515666 0.020909037 12 -0.01769262 0.028782608 -2.5489583 1.6276438e+09
2.1816757 -0.26094171 0.030792803 13 -0.01517434 0.021009859 -2.7818453 1.6276438e+09
2.1891663 -0.24053353 0.044381425 14 -0.024054855 0.014275352 -2.9869981 1.6276438e+09
1.8086332 -0.27679592 0.039456885 15 -0.025222726 0.010462327 3.0608077 1.6276438e+09
1.4214323 -0.20368624 0.026927246 16 -0.026681384 0.0029865459 2.8006227 1.6276438e+09
1.0666517 -0.044003878 0.026940621 17 -0.027024681 -0.0086106723 2.5361917 1.6276438e+09
0.75707686 0.20349847 0.022553166 18 -0.022542687 -0.0051706326 2.2770281 1.6276438e+09
0.71035534 0.23267174 0.029281002 19 -0.012539674 -0.0017808963 2.0370171 1.6276438e+09
0.8831355 -0.1624573 0.020676708 20 -0.0051877219 -0.0036362559 1.7695059 1.6276438e+09
0.93361813 -0.50090688 0.019304778 21 -0.0033511296 -0.0035763376 1.5462053 1.6276438e+09
0.94655865 -0.39315677 0.013858686 22 -0.004824609 -0.0086310776 1.3426275 1.6276438e+09
1.0845354 0.013599527 0.025970239 23 -0.0029058417 -0.01305425 1.0806179 1.6276438e+09
1.3298143 0.39800173 0.035755936 24 -0.00081319368 -0.015137915 0.80160713 1.6276438e+09
1.6631619 0.68283087 0.035063744 25 0.010841122 -0.010672451 0.58392882 1.6276438e+09
1.4023403 0.528808 0.04075883 26 0.0138468 -0.0037484204 0.37340149 1.6276438e+09
1.0586758 0.41778401 0.030501366 27 0.018514642 0.0059577967 0.12124718 1.6276438e+09
0.4479003 0.29443768 0.017633455 28 0.00097759091 -0.0052679447 0.32626823 1.6276438e+09
1.2613472 0.51627779 0.033457547 29 0.012851293 0.00072391162 0.083946139 1.6276438e+09
1.6253161 0.52161342 0.029423106 30 0.016011577 -0.00016167089 -0.13322859 1.6276438e+09
1.988462 0.44038484 0.039369289 31 0.016169842 -0.00012129317 -0.35560119 1.6276438e+09
2.3199971 0.29370868 0.030660275 32 0.0064779092 0.010252362 -0.5768699 1.6276438e+09
2.2473843 0.3815819 0.035263836 33 0.012342583 0.020926213 -0.81364906 1.6276438e+09
2.3737347 0.20040032 0.023955729 34 0.0041595702 0.018449757 -1.0353484 1.6276438e+09
2.5215349 -0.0775989 0.02546536 35 -0.002252195 0.019332353 -1.2419636 1.6276438e+09
2.595885 -0.3851392 0.022863802 36 -0.0059232027 0.016933834 -1.4512278 1.6276438e+09
2.5828888 0.09289296 0.030490728 37 -0.0068550124 0.021851577 -1.6620225 1.6276438e+09
2.4483695 -0.89895064 0.016986089 38 0.0024059603 0.030255901 -1.7370197 1.6276438e+09
2.5504518 -0.52968669 0.024025515 39 -0.0018072609 0.020751918 -1.9515209 1.6276438e+09
2.3954113 -0.77298689 0.034093093 40 -0.0021571135 0.020770002 -2.194195 1.6276438e+09
2.6321967 -0.50454134 0.030684793 41 -0.0081609935 0.017495908 -2.4124548 1.6276438e+09
2.4327304 -0.63433594 0.023244984 42 -0.018323975 0.012684593 -2.6364174 1.6276438e+09
2.0634546 -0.78560472 0.01371018 43 -0.023113159 0.014993784 -2.9115903 1.6276438e+09
1.7762012 -0.82994711 0.011994589 44 -0.027817834 0.011614305 -3.1125922 1.6276438e+09
1.4968746 -0.82865977 0.0064981943 45 -0.031409673 0.0051029287 2.9685133 1.6276438e+09
1.2222784 -0.7674793 0.0018508709 46 -0.033040144 -0.0048901164 2.7610567 1.6276438e+09
0.96653873 -0.65147793 0.0056311935 47 -0.023867453 -0.011489812 2.5606923 1.6276438e+09
0.63201141 -0.38669875 0.011473075 48 -0.019203091 -0.0041249902 2.2637913 1.6276438e+09
0.61026502 -0.37987307 0.0081778932 49 -0.011375637 0.0018639504 2.0280457 1.6276438e+09
0.70122904 -0.57500321 0.018030826 50 -0.011013162 -0.015465843 1.7801085 1.6276438e+09
0.64966321 -0.20007385 0.0065235584 51 -0.011460169 -0.010431688 1.5407426 1.6276438e+09
0.69255537 0.23423672 0.030603189 52 -0.0043923073 -0.010946412 1.3356897 1.6276438e+09
0.59284109 -0.086473532 0.017653171 53 -0.0029641888 -0.0039964938 1.0640557 1.6276438e+09
0.37256077 -0.41256267 0.020924654 54 0.0049625114 -0.0080205258 0.77762353 1.6276438e+09
0.44921836 -0.35136664 0.0085152164 55 -0.00070230657 -0.010188933 0.5277344 1.6276438e+09
0.8109448 -0.17571439 0.019493399 56 0.0035083957 -0.0029162043 0.29515171 1.6276438e+09
1.7567559 -0.0017071188 0.019896489 57 0.018619346 -0.0052772965 0.082212083 1.6276438e+09
