# .PCD v0.7 - Point Cloud Data file format
VERSION 0.7
FIELDS x y z intensity roll pitch yaw time
SIZE 4 4 4 4 4 4 4 8
TYPE F F F F F F F F
COUNT 1 1 1 1 1 1 1 1
WIDTH 72
HEIGHT 1
VIEWPOINT 0 0 0 1 0 0 0
POINTS 72
DATA ascii
5.6656779e-07 3.5200987e-08 7.9011733e-07 0 0.031642079 0.0042692008 2.0413274e-13 1.6280621e+09
0.25662702 -0.026152894 0.0056115258 1 0.027377408 0.0088388547 -0.20179406 1.6280621e+09
1.2621415 -0.28521094 -0.0027219767 2 0.027218424 0.009014464 -0.19131289 1.6280621e+09
2.2759745 -0.48130462 -0.0064152023 3 0.021853123 0.0022471258 -0.24716689 1.6280621e+09
3.2586765 -0.75595313 -0.0057422267 4 0.016857801 -0.0031062346 -0.33379346 1.6280621e+09
4.2710209 -1.0734116 -0.0065848934 5 0.011308709 -0.0046397238 -0.25046527 1.6280621e+09
5.2471662 -1.3323228 -0.0019746022 6 0.010851912 -0.0055330279 -0.24515489 1.6280621e+09
6.261764 -1.5656165 0.00095579762 7 0.012812147 -0.0067641521 -0.26405609 1.6280621e+09
7.3203745 -1.8361059 0.0076057059 8 0.01919112 -0.012361195 -0.22377342 1.6280621e+09
8.3751621 -2.0344059 0.009433127 9 0.013685164 -0.0068510794 -0.17780906 1.6280621e+09
9.4492731 -2.2185547 0.013142982 10 0.011549937 -0.011264261 -0.1385681 1.6280621e+09
10.542975 -2.3632607 0.01796375 11 0.013215558 -0.01483436 -0.15108554 1.6280621e+09
11.597411 -2.5437939 0.033915047 12 0.0025093914 -0.014995612 -0.23738369 1.6280621e+09
12.605765 -2.7773054 0.045693178 13 0.0034810535 -0.012591065 -0.24154334 1.6280621e+09
13.60805 -3.0030859 0.091740683 14 0.015329766 -0.078886382 -0.20446971 1.6280621e+09
14.641084 -3.1967659 0.15675668 15 0.013257591 -0.061220221 -0.1625679 1.6280621e+09
15.665652 -3.3482378 0.22210369 16 0.01483735 -0.061135467 -0.17336136 1.6280621e+09
16.693834 -3.5550964 0.30172953 17 0.015948292 -0.063585699 -0.21484338 1.6280621e+09
17.689573 -3.7600503 0.39919183 18 0.0097597353 -0.065588459 -0.20477284 1.6280621e+09
18.815584 -3.991524 0.47043672 19 0.0029072196 -0.06628678 -0.18923564 1.6280621e+09
19.881229 -4.1611223 0.53609306 20 -0.0080828937 -0.070579372 -0.18307118 1.6280621e+09
20.975319 -4.3381691 0.60853952 21 -0.0032956898 -0.080379061 -0.17552203 1.6280621e+09
22.030958 -4.5071917 0.6597181 22 -0.013428655 -0.045826137 -0.19832075 1.6280621e+09
23.058159 -4.7718539 0.69040602 23 -0.015380657 -0.053190231 -0.37308323 1.6280621e+09
23.847046 -5.1922688 0.67706901 24 -0.016282298 -0.020016707 -0.57380748 1.6280621e+09
24.733906 -5.7428832 0.69370472 25 -0.018389869 -0.018983502 -0.71686196 1.6280621e+09
25.266302 -6.2248445 0.71562052 26 -0.026893061 -0.029176559 -0.93091989 1.6280621e+09
25.851585 -7.0692062 0.73701274 27 0.0091414666 0.004115026 -1.0190632 1.6280621e+09
26.329901 -7.9985065 0.7244662 28 0.020890076 0.0039227237 -1.1587325 1.6280621e+09
26.776854 -8.7886248 0.6831122 29 0.0247376 0.001806816 -0.94228631 1.6280621e+09
27.237141 -9.304225 0.69588315 30 0.022819268 -0.0044550262 -0.71760815 1.6280621e+09
27.691816 -9.6428442 0.69525295 31 0.02775171 -0.008998299 -0.50138891 1.6280621e+09
28.202217 -9.8691702 0.71186978 32 0.027799264 -0.01375665 -0.282938 1.6280621e+09
28.756697 -9.9896584 0.71247053 33 0.027448345 -0.017015638 -0.061807346 1.6280621e+09
28.691103 -9.9834089 0.70390826 34 0.012571825 -0.021591961 0.19354685 1.6280621e+09
28.297255 -10.115881 0.69941986 35 0.0051491042 -0.021345105 0.42639259 1.6280621e+09
27.93836 -10.321898 0.69115174 36 -0.0025792667 -0.017549884 0.64936966 1.6280621e+09
27.596125 -10.633783 0.68590981 37 -0.0063967616 -0.01417964 0.88718265 1.6280621e+09
27.363298 -10.966975 0.688631 38 -0.0090866508 -0.010780754 1.1004941 1.6280621e+09
27.201031 -11.322936 0.69331545 39 -0.012328469 -0.009842881 1.3055725 1.6280621e+09
27.113777 -11.772217 0.68511587 40 -0.012587439 -0.0056041535 1.5179626 1.6280621e+09
27.070374 -12.792089 0.66325253 41 -0.011574749 -0.0030916524 1.442227 1.6280621e+09
26.942972 -13.501643 0.65591598 42 -0.010454413 -0.0037624945 1.2296256 1.6280621e+09
26.724333 -14.000182 0.65722656 43 -0.0078172097 -0.0053149993 1.0100558 1.6280621e+09
26.466841 -14.386219 0.66970414 44 -0.00658852 -0.0032445127 0.80810285 1.6280621e+09
26.121565 -14.693019 0.66215521 45 -0.0042582774 -0.0050952178 0.60301071 1.6280621e+09
25.720903 -14.944077 0.66311556 46 -0.003663494 -0.0059100925 0.3954877 1.6280621e+09
24.741087 -15.270032 0.66887087 47 -0.0046396046 -0.0047099572 0.50778961 1.6280621e+09
24.429644 -15.474913 0.65928292 48 -0.0025062799 -0.0044166371 0.72649097 1.6280621e+09
24.17103 -15.735897 0.66034824 49 -0.0078437356 -0.0018388964 0.94585139 1.6280621e+09
23.975018 -16.052681 0.66105419 50 -0.0083320877 0.00033371287 1.1651105 1.6280621e+09
23.840557 -16.383474 0.65978384 51 -0.0070928065 -0.0017382595 1.4043566 1.6280622e+09
24.018389 -15.408249 0.66012752 52 -0.0058397925 -0.0027413489 1.1936045 1.6280622e+09
24.179768 -15.047486 0.66247261 53 -0.0062224148 -0.0053719794 0.99296808 1.6280622e+09
24.411856 -14.730155 0.65857196 54 -0.0040351204 -0.0085295103 0.7922582 1.6280622e+09
24.707407 -14.450744 0.66234386 55 -0.0029519717 -0.0085699437 0.58119041 1.6280622e+09
25.073101 -14.246239 0.66471159 56 -0.0032861382 -0.0091988603 0.36647832 1.6280622e+09
26.057138 -13.97907 0.67248768 57 -0.002702856 -0.0084734736 0.45906261 1.6280622e+09
26.420616 -13.759694 0.66685361 58 -0.0021179949 -0.010632489 0.71518266 1.6280622e+09
26.702215 -13.46804 0.66528213 59 -0.0050126077 -0.0098755034 0.97254938 1.6280622e+09
26.892834 -13.135368 0.66509372 60 -0.0081062149 -0.009063879 1.2292196 1.6280622e+09
26.993605 -12.755957 0.6669926 61 -0.0093967402 -0.0069266153 1.4778106 1.6280622e+09
26.975433 -12.336128 0.67735559 62 -0.011299655 -0.0070159975 1.6852005 1.6280622e+09
26.931969 -11.756145 0.682809 63 -0.012226172 -0.0089887735 1.4430641 1.6280622e+09
27.038322 -11.289233 0.688977 64 -0.0076902132 -0.0043744287 1.2340499 1.6280622e+09
26.887056 -11.625725 0.67601424 65 -0.0023203448 -0.0094784917 0.9603349 1.6280622e+09
26.694229 -11.926914 0.67380053 66 0.004148291 -0.0093671912 0.7593528 1.6280622e+09
25.938648 -12.64218 0.67255062 67 -0.00067535118 -0.0070509375 0.78370398 1.6280622e+09
25.354862 -13.159544 0.66547185 68 -0.00060342357 -0.0062941234 0.57124633 1.6280622e+09
24.454437 -13.706589 0.65048581 69 -0.0019589746 -0.0063036531 0.6453923 1.6280622e+09
23.937632 -14.18109 0.6646958 70 -0.0035383878 -0.0041795732 0.85418028 1.6280622e+09
23.275412 -15.001578 0.65901053 71 0.00060358841 -0.0025484883 0.8004896 1.6280622e+09
