# .PCD v0.7 - Point Cloud Data file format
VERSION 0.7
FIELDS x y z intensity roll pitch yaw time
SIZE 4 4 4 4 4 4 4 8
TYPE F F F F F F F F
COUNT 1 1 1 1 1 1 1 1
WIDTH 69
HEIGHT 1
VIEWPOINT 0 0 0 1 0 0 0
POINTS 69
DATA ascii
-3.2673626e-08 -1.3335405e-07 1.5266733e-06 0 0.031642079 0.0042692008 -5.4809161e-14 1.6280621e+09
0.28604144 -0.032168608 0.0038106623 1 0.027028471 0.0084216297 -0.21743457 1.6280621e+09
1.2941289 -0.29589877 -0.0010307505 2 0.026610155 0.0095929317 -0.1857048 1.6280621e+09
2.305341 -0.4818882 -0.0076861666 3 0.02115903 0.0020640595 -0.24981883 1.6280621e+09
3.2864828 -0.76552474 -0.00465954 4 0.015417204 -0.0035360544 -0.33720323 1.6280621e+09
4.3104892 -1.0911312 -0.0071611437 5 0.011902707 -0.0050930306 -0.25077617 1.6280621e+09
5.3470168 -1.3613436 -0.0045516561 6 0.0085607767 -0.0048808111 -0.23449817 1.6280621e+09
6.4109116 -1.5998685 0.0068403939 7 0.0097544072 -0.0052239038 -0.26669803 1.6280621e+09
7.4665761 -1.8762525 0.0098642539 8 0.01969739 -0.010107953 -0.21572562 1.6280621e+09
8.54144 -2.0687342 0.014683288 9 0.015705572 -0.0059120292 -0.17518416 1.6280621e+09
9.6203842 -2.2431028 0.018767036 10 0.012166983 -0.0092245126 -0.14081541 1.6280621e+09
10.694432 -2.3918896 0.021909459 11 0.0067513781 -0.013747897 -0.15611207 1.6280621e+09
11.748723 -2.5667541 0.039829746 12 0.0033332708 -0.0086937016 -0.24084571 1.6280621e+09
12.773362 -2.8132041 0.040262587 13 0.0087643303 -0.013225737 -0.23560375 1.6280621e+09
13.765541 -3.0465574 0.094230972 14 0.013417477 -0.072372541 -0.19827023 1.6280621e+09
14.83516 -3.2332151 0.16638817 15 0.012018153 -0.061535548 -0.15761381 1.6280621e+09
15.864705 -3.3700256 0.21763276 16 0.012857804 -0.059680063 -0.18300277 1.6280621e+09
16.919016 -3.5970857 0.29823825 17 0.014792205 -0.063846186 -0.21460919 1.6280621e+09
17.918781 -3.8094101 0.37366962 18 0.01465043 -0.061896954 -0.20080745 1.6280621e+09
19.02652 -4.0231528 0.45932606 19 0.0026956422 -0.063793682 -0.18936096 1.6280621e+09
20.07889 -4.1828914 0.5151819 20 -0.005218856 -0.072196111 -0.18242881 1.6280621e+09
21.185078 -4.3803368 0.59128934 21 0.0034112202 -0.077046454 -0.17726406 1.6280621e+09
22.271597 -4.5796909 0.61831403 22 -0.0086900378 -0.027751764 -0.2112817 1.6280621e+09
23.289816 -4.8461709 0.61675018 23 -0.0045162691 -0.041714769 -0.44103739 1.6280621e+09
24.183796 -5.3925424 0.66088355 24 -0.014547247 -0.0089491978 -0.60058171 1.6280621e+09
25.043249 -5.9912066 0.67684495 25 -0.014994657 -0.018222341 -0.82582092 1.6280621e+09
25.674227 -6.7767849 0.66832727 26 -0.0088645509 0.0013521737 -0.97002339 1.6280621e+09
26.222898 -7.7067266 0.66449314 27 0.0020087783 0.0070277322 -1.1251837 1.6280621e+09
26.694067 -8.6567011 0.66150385 28 0.029158304 0.013166399 -0.98825049 1.6280621e+09
27.148853 -9.1853008 0.63955176 29 0.02291014 0.0055147354 -0.76830554 1.6280621e+09
27.580376 -9.5410376 0.61398536 30 0.031055704 -0.001578852 -0.55768579 1.6280621e+09
28.087246 -9.7960625 0.63192528 31 0.029410254 -0.0031628446 -0.33739221 1.6280621e+09
28.625267 -9.9454641 0.64056283 32 0.029482324 -0.0086572804 -0.11835711 1.6280621e+09
28.854734 -9.933465 0.64183819 33 0.020275041 -0.0057314397 0.10178123 1.6280621e+09
28.432129 -10.028229 0.64276528 34 0.0083538322 -0.01182689 0.34524396 1.6280621e+09
28.110746 -10.181851 0.64127177 35 0.0054472042 -0.012921738 0.5462451 1.6280621e+09
27.784349 -10.410908 0.63960153 36 0.0016401587 -0.0099906428 0.74786127 1.6280621e+09
27.520306 -10.677891 0.63639116 37 0.00058131764 -0.0098708142 0.94847327 1.6280621e+09
27.284683 -11.049876 0.63228005 38 -0.002480414 -0.0091656623 1.1723391 1.6280621e+09
27.162474 -11.434466 0.62022436 39 -0.0017025475 -0.0061772033 1.3901091 1.6280621e+09
27.099344 -12.514405 0.60886031 40 -0.0035715702 -0.0040937834 1.4843993 1.6280621e+09
26.976412 -13.314417 0.6066829 41 0.0022543927 -0.0034224559 1.2790625 1.6280621e+09
26.79747 -13.817741 0.6063782 42 0.002154548 -0.0033143261 1.0670806 1.6280621e+09
26.48246 -14.286169 0.61066902 43 0.003555557 -0.0012386175 0.82827318 1.6280621e+09
26.170176 -14.609292 0.6045416 44 0.00030353613 -0.00082647544 0.6234296 1.6280621e+09
25.769156 -14.85904 0.60039681 45 0.0025324365 -0.0020370567 0.41648155 1.6280621e+09
24.805809 -15.187518 0.58347529 46 0.0034641246 -0.0025233885 0.48146948 1.6280621e+09
24.489702 -15.403866 0.57474929 47 0.0031240731 -0.0024866653 0.70074296 1.6280621e+09
24.212595 -15.646969 0.56883407 48 0.0025158303 -0.0043920861 0.91925067 1.6280621e+09
23.984327 -15.932189 0.5623017 49 -0.00027198688 -0.0054298616 1.1384963 1.6280621e+09
23.923561 -16.424826 0.56276417 50 -0.0024552026 -0.0071587963 1.3790026 1.6280622e+09
24.032459 -15.411009 0.569731 51 0.00068877847 -0.0075070262 1.2114252 1.6280622e+09
24.215982 -14.974115 0.57412559 52 0.001294931 -0.0063784393 0.96934682 1.6280622e+09
24.435064 -14.636468 0.58469939 53 0.0043938574 -0.0090906098 0.7654289 1.6280622e+09
24.750231 -14.384508 0.59222376 54 0.00054954796 -0.0040001385 0.55449188 1.6280622e+09
25.135735 -14.177889 0.60460573 55 0.0010573916 -0.0031749583 0.3396779 1.6280622e+09
26.122915 -13.921421 0.62677234 56 0.0026229455 -0.0015396831 0.49042255 1.6280622e+09
26.468794 -13.686584 0.62876791 57 0.003395438 -0.0027568673 0.74790359 1.6280622e+09
26.734245 -13.392629 0.63615352 58 -0.0001847706 -0.0023607293 1.0033015 1.6280622e+09
26.908865 -13.055419 0.6346212 59 0.00079893105 -0.0027352746 1.2622514 1.6280622e+09
27.009136 -12.664403 0.63263589 60 -0.0019262033 -0.0065450943 1.5092925 1.6280622e+09
26.96841 -11.561021 0.62897944 61 -0.0019718234 -0.012557242 1.3523334 1.6280622e+09
26.999342 -11.406022 0.61693001 62 0.0038180577 -0.0051484266 1.113474 1.6280622e+09
26.869806 -11.654011 0.60252655 63 0.0050672526 -0.0075382125 0.9028042 1.6280622e+09
26.104666 -12.469345 0.62660784 64 0.0050166361 -0.004034814 0.77405941 1.6280622e+09
25.316698 -13.167193 0.61353832 65 0.0048005572 -0.0023164719 0.5484516 1.6280622e+09
24.412029 -13.708323 0.61144799 66 0.00510161 -0.0022505405 0.66636151 1.6280622e+09
23.916853 -14.185472 0.60978043 67 0.0063704574 -0.0041656853 0.87262315 1.6280622e+09
23.260572 -15.007629 0.60470128 68 0.0073294393 -0.00082781631 0.79271519 1.6280622e+09
