# .PCD v0.7 - Point Cloud Data file format
VERSION 0.7
FIELDS x y z intensity roll pitch yaw time
SIZE 4 4 4 4 4 4 4 8
TYPE F F F F F F F F
COUNT 1 1 1 1 1 1 1 1
WIDTH 55
HEIGHT 1
VIEWPOINT 0 0 0 1 0 0 0
POINTS 55
DATA ascii
-1.4763111e-07 1.4483137e-06 8.1721214e-07 0 0.0074211075 0.0017162798 7.6223485e-14 1.6276437e+09
1.0138711 -0.061128359 0.02511505 1 0.0082158884 0.0032937746 -0.10112076 1.6276437e+09
2.0484412 -0.2046385 0.04615866 2 0.018025616 -0.002290756 -0.23997729 1.6276437e+09
2.402848 -0.3009783 0.039466593 3 0.0095463414 0.002274394 -0.45284784 1.6276437e+09
2.2943943 -0.21641822 0.04949598 4 0.021980271 0.02292327 -0.73433465 1.6276437e+09
2.0020995 0.07685335 0.047447357 5 0.018582398 0.020657701 -1.0028816 1.6276437e+09
1.8204124 0.44158134 0.037325472 6 0.012761252 0.02041526 -1.2733361 1.6276437e+09
1.8335052 0.25170475 0.058617312 7 0.0029864833 0.026467685 -1.5386909 1.6276438e+09
1.8235948 -0.089571908 0.042525202 8 -0.0062240483 0.023053255 -1.7685705 1.6276438e+09
1.7232007 -0.43637964 0.026058607 9 -0.012642023 0.025030468 -2.0077345 1.6276438e+09
1.5195184 -0.80113113 0.029754739 10 -0.0078630783 0.029353783 -2.2101967 1.6276438e+09
1.8105764 -0.48513761 0.039268039 11 -0.011108611 0.028497403 -2.4747195 1.6276438e+09
2.0792551 -0.28346601 0.031446084 12 -0.015972441 0.024106778 -2.6997888 1.6276438e+09
2.2947969 -0.19797879 0.046359718 13 -0.026103746 0.012425946 -2.9196663 1.6276438e+09
1.9462192 -0.26070672 0.038140539 14 -0.028901022 0.011139552 -3.1374969 1.6276438e+09
1.5581949 -0.22996801 0.037967265 15 -0.028703528 0.0047899256 2.8886042 1.6276438e+09
1.1820354 -0.099430442 0.038026199 16 -0.022589859 -0.00098460971 2.625376 1.6276438e+09
0.85709769 0.12175687 0.034807142 17 -0.018794995 -0.0075407675 2.3656964 1.6276438e+09
0.61679488 0.39818108 0.037325881 18 -0.010783765 0.0016428428 2.1415439 1.6276438e+09
0.80558819 0.04766421 0.033391658 19 -0.0097278645 -0.0010602376 1.913101 1.6276438e+09
0.91450661 -0.2687577 0.031816281 20 -0.0027621591 -0.004225696 1.6972438 1.6276438e+09
0.94575965 -0.60311908 0.024287773 21 0.0012607676 -0.0075197332 1.4965912 1.6276438e+09
0.97937685 -0.25031799 0.03354704 22 -0.0056668278 -0.0092935041 1.2594464 1.6276438e+09
1.1662756 0.15515602 0.041477121 23 -0.0076534417 -0.010447622 0.98650402 1.6276438e+09
1.4375563 0.50432646 0.049657721 24 0.00055014918 -0.011050863 0.71413541 1.6276438e+09
1.4969175 0.58205706 0.049185973 25 0.0070019271 -0.0025662461 0.45452297 1.6276438e+09
1.179984 0.45641321 0.038943578 26 0.015901711 0.005087656 0.20374805 1.6276438e+09
1.5118132 0.52665138 0.045627579 27 0.003869869 -0.0029737214 -0.060028918 1.6276438e+09
1.8742329 0.47919539 0.04971274 28 0.0062624058 -0.0035123134 -0.28013095 1.6276438e+09
2.2243338 0.35512787 0.056084376 29 0.0076064393 0.006882627 -0.50283611 1.6276438e+09
2.3442383 0.30769625 0.048797484 30 0.012567102 0.022347623 -0.75535858 1.6276438e+09
2.323168 0.28896841 0.048291944 31 0.0037532586 0.015950117 -0.97022742 1.6276438e+09
2.530405 -0.074345656 0.046580549 32 -0.0014504612 0.021830248 -1.2402792 1.6276438e+09
2.6097033 -0.38158077 0.046667006 33 -0.0038154777 0.019832058 -1.4495785 1.6276438e+09
2.5907745 0.10361624 0.043380097 34 -0.0075873611 0.022133414 -1.6603622 1.6276438e+09
2.4612963 -0.88868272 0.018539354 35 -0.00067952741 0.033478927 -1.7351998 1.6276438e+09
2.5597811 -0.51398045 0.040883917 36 -0.0036075576 0.024975507 -1.9485054 1.6276438e+09
2.3988433 -0.76139325 0.035934407 37 -0.0069826716 0.02558961 -2.191741 1.6276438e+09
2.6421549 -0.49202824 0.032112509 38 -0.014524033 0.0206763 -2.4101787 1.6276438e+09
2.4418571 -0.61880404 0.029604029 39 -0.023584319 0.014833563 -2.6337738 1.6276438e+09
2.0676756 -0.76952899 0.027425218 40 -0.02886414 0.014265937 -2.9090793 1.6276438e+09
1.7880193 -0.81688923 0.026571099 41 -0.027127672 0.01095587 -3.1103127 1.6276438e+09
1.5009905 -0.81970543 0.013141877 42 -0.027263682 0.0051126103 2.9705448 1.6276438e+09
1.2280027 -0.76183969 0.021682892 43 -0.028093159 -0.0031378514 2.7625849 1.6276438e+09
0.976758 -0.64427996 0.021621512 44 -0.023218021 -0.0096148923 2.5617959 1.6276438e+09
0.64475709 -0.3790544 0.02305392 45 -0.022036066 -0.0032084603 2.26618 1.6276438e+09
0.6109696 -0.37507302 0.025199087 46 -0.0094891721 0.0043261531 2.0319712 1.6276438e+09
0.70774907 -0.56831837 0.025781672 47 -0.0098661901 -0.01554594 1.7814265 1.6276438e+09
0.65315318 -0.19459578 0.026427621 48 -0.01212409 -0.011506465 1.5430508 1.6276438e+09
0.69799495 0.24020155 0.034683097 49 -0.0032278788 -0.0067749508 1.3384827 1.6276438e+09
0.598158 -0.084272549 0.030789722 50 -0.0032743246 -0.00031081177 1.0649058 1.6276438e+09
0.37889388 -0.40810814 0.026642367 51 0.0036690459 -0.0063550971 0.7798484 1.6276438e+09
0.45040092 -0.34549707 0.031981368 52 -0.0036615797 -0.0097085107 0.52953923 1.6276438e+09
0.81114846 -0.17254822 0.033533756 53 0.00050978432 -0.00058508618 0.29458082 1.6276438e+09
1.7601407 0.0052509964 0.038534176 54 0.017230669 -0.0019772884 0.084205277 1.6276438e+09
