# .PCD v0.7 - Point Cloud Data file format
VERSION 0.7
FIELDS x y z intensity roll pitch yaw time
SIZE 4 4 4 4 4 4 4 8
TYPE F F F F F F F F
COUNT 1 1 1 1 1 1 1 1
WIDTH 58
HEIGHT 1
VIEWPOINT 0 0 0 1 0 0 0
POINTS 58
DATA ascii
-2.8122574e-06 9.3748019e-07 -1.3677092e-06 0 0.0073915138 0.0017171198 6.789337e-14 1.6276437e+09
1.0065658 -0.06130892 0.027643939 1 0.010982385 0.0023738265 -0.1018426 1.6276437e+09
2.0551071 -0.20866916 0.036760334 2 0.014129852 -0.0036808508 -0.24253342 1.6276437e+09
2.4084511 -0.30493939 0.034155469 3 0.0056898319 -0.0014739524 -0.45383874 1.6276437e+09
2.4019623 -0.29235879 0.035385501 4 0.019751426 0.015042561 -0.65436214 1.6276437e+09
2.0961535 -0.043634146 0.032514758 5 0.016207045 0.016343964 -0.91557169 1.6276437e+09
1.8759856 0.31658414 0.032861605 6 0.013094662 0.027084215 -1.1860157 1.6276437e+09
1.8062633 0.4562006 0.04294965 7 0.0064478996 0.018930618 -1.4033532 1.6276438e+09
1.8268986 0.13519534 0.039742403 8 0.0030343032 0.019384626 -1.6144789 1.6276438e+09
1.7968836 -0.20996052 0.036087006 9 -0.0036344721 0.024690012 -1.8494747 1.6276438e+09
1.6713828 -0.56319493 0.026246523 10 -0.0075336583 0.019346183 -2.0894654 1.6276438e+09
1.5924441 -0.69859248 0.01666761 11 -0.0095865699 0.030741453 -2.2913256 1.6276438e+09
1.8726575 -0.41762596 0.020546459 12 -0.018320341 0.028832471 -2.5496235 1.6276438e+09
2.1782618 -0.26170811 0.02802542 13 -0.015852056 0.020930083 -2.7818906 1.6276438e+09
2.1888564 -0.2401537 0.044353846 14 -0.024958149 0.014073669 -2.9871719 1.6276438e+09
1.8064792 -0.27591747 0.034868654 15 -0.026467836 0.0095315576 3.0610738 1.6276438e+09
1.4187745 -0.20425175 0.0252258 16 -0.027622627 0.0027145573 2.8005526 1.6276438e+09
1.0648872 -0.045247223 0.024402985 17 -0.026600746 -0.0082347766 2.5362983 1.6276438e+09
0.7540285 0.20255941 0.017693853 18 -0.021566132 -0.0060675116 2.2778766 1.6276438e+09
0.70743829 0.2331014 0.025801908 19 -0.011741145 -0.0022240689 2.0370743 1.6276438e+09
0.87946546 -0.16420017 0.017353954 20 -0.0050797504 -0.0029644233 1.7697058 1.6276438e+09
0.92942333 -0.50281584 0.017246844 21 -0.003571131 -0.0019937034 1.5459973 1.6276438e+09
0.94388264 -0.39496979 0.011863485 22 -0.004399077 -0.008960966 1.342742 1.6276438e+09
1.0829749 0.012165267 0.025733521 23 -0.0032608302 -0.011853172 1.0807493 1.6276438e+09
1.3288195 0.39624071 0.030250475 24 0.00035211389 -0.014801643 0.80122709 1.6276438e+09
1.6624612 0.68132877 0.032829646 25 0.01047274 -0.010468581 0.58380848 1.6276438e+09
1.4007478 0.52917248 0.036594469 26 0.014663554 -0.0035787313 0.37378666 1.6276438e+09
1.0560634 0.41812882 0.02846536 27 0.019394329 0.006284561 0.12138241 1.6276438e+09
0.44531977 0.29383913 0.015135546 28 0.00024897882 -0.0042567342 0.32615522 1.6276438e+09
1.2603738 0.51497632 0.030120278 29 0.013004662 0.0010743919 0.083468229 1.6276438e+09
1.6279017 0.51754707 0.029106136 30 0.013680236 -0.00045914008 -0.13366134 1.6276438e+09
1.9844787 0.43924204 0.033731736 31 0.016740462 0.0028015182 -0.35563213 1.6276438e+09
2.3191657 0.29037228 0.027042348 32 0.0040894938 0.010667465 -0.5772866 1.6276438e+09
2.2484231 0.37824357 0.031395327 33 0.0091867074 0.01825461 -0.81417936 1.6276438e+09
2.3738194 0.19656247 0.025572941 34 0.0024818399 0.014343721 -1.0359697 1.6276438e+09
2.521033 -0.079875223 0.025935801 35 -0.0038815129 0.016056327 -1.2422074 1.6276438e+09
2.5971122 -0.39090547 0.02533037 36 -0.006403571 0.011234643 -1.4516064 1.6276438e+09
2.5835567 0.091182917 0.027546432 37 -0.0067220684 0.017623853 -1.662375 1.6276438e+09
2.4543726 -0.90205151 0.017662818 38 0.0011034239 0.026939722 -1.7380946 1.6276438e+09
2.5491862 -0.52983648 0.022976687 39 -0.0009081022 0.01728406 -1.95125 1.6276438e+09
2.3944659 -0.77501905 0.03285173 40 -0.0014105185 0.018927746 -2.1946702 1.6276438e+09
2.6421092 -0.50133294 0.030620987 41 -0.0081059579 0.01698081 -2.413111 1.6276438e+09
2.4353633 -0.63327086 0.028407719 42 -0.016232658 0.012526907 -2.6359994 1.6276438e+09
2.0603032 -0.78603089 0.014682543 43 -0.021455094 0.014466829 -2.9117739 1.6276438e+09
1.7750822 -0.8304525 0.010385652 44 -0.025487956 0.011263058 -3.1127539 1.6276438e+09
1.4960102 -0.83134139 0.0061429464 45 -0.029270705 0.0054308185 2.9682338 1.6276438e+09
1.2233129 -0.76743412 0.0050455099 46 -0.03173615 -0.0039913678 2.7610109 1.6276438e+09
0.96629047 -0.65074128 0.0081747808 47 -0.02202116 -0.010385226 2.5607252 1.6276438e+09
0.63145441 -0.38607588 0.012825687 48 -0.018442281 -0.0027961927 2.2638619 1.6276438e+09
0.60943449 -0.38131472 0.0057962709 49 -0.010783353 0.00264354 2.0280366 1.6276438e+09
0.69913548 -0.57679123 0.013681909 50 -0.010542884 -0.014853506 1.77996 1.6276438e+09
0.64698058 -0.20101251 0.0070884582 51 -0.011601618 -0.0096610514 1.5408382 1.6276438e+09
0.69251233 0.23310925 0.028184038 52 -0.0044193659 -0.0096206944 1.3358324 1.6276438e+09
0.59158748 -0.089139283 0.019532589 53 -0.0039206003 -0.0029421211 1.0640059 1.6276438e+09
0.37188134 -0.41360056 0.021418355 54 0.0045571937 -0.0070283068 0.7777701 1.6276438e+09
0.4487004 -0.3516562 0.0062720357 55 -0.0013969506 -0.0099020842 0.52775943 1.6276438e+09
0.80932009 -0.17613353 0.018162766 56 0.0022833145 -0.0026176851 0.29509714 1.6276438e+09
1.7533528 -0.0021313492 0.016296465 57 0.01538144 -0.0041204127 0.082660802 1.6276438e+09
