# .PCD v0.7 - Point Cloud Data file format
VERSION 0.7
FIELDS x y z intensity roll pitch yaw time
SIZE 4 4 4 4 4 4 4 8
TYPE F F F F F F F F
COUNT 1 1 1 1 1 1 1 1
WIDTH 72
HEIGHT 1
VIEWPOINT 0 0 0 1 0 0 0
POINTS 72
DATA ascii
-6.3965081e-07 8.9092737e-08 1.8653394e-07 0 0.031642079 0.0042692008 9.9305296e-14 1.6280621e+09
0.25658479 -0.026214579 0.0056618364 1 0.027363919 0.0088432664 -0.20180257 1.6280621e+09
1.2621615 -0.28529412 -0.0028602055 2 0.02722967 0.0090244822 -0.19130084 1.6280621e+09
2.2755294 -0.481749 -0.0065717348 3 0.021859113 0.0022161645 -0.24718775 1.6280621e+09
3.2585452 -0.75562221 -0.0057785055 4 0.016863434 -0.0031222755 -0.33376381 1.6280621e+09
4.2714376 -1.0738138 -0.0062861657 5 0.011374158 -0.0047004265 -0.25045985 1.6280621e+09
5.2475319 -1.3324666 -0.0021019711 6 0.010865267 -0.0055507426 -0.2451269 1.6280621e+09
6.261941 -1.5657847 0.0012280588 7 0.012815169 -0.0068057249 -0.26402232 1.6280621e+09
7.3204317 -1.8368188 0.0083334558 8 0.019125115 -0.012401204 -0.22378024 1.6280621e+09
8.3758888 -2.0336242 0.010274738 9 0.013671316 -0.0069467784 -0.17777663 1.6280621e+09
9.4506855 -2.2170751 0.013382469 10 0.011518977 -0.011256246 -0.1385113 1.6280621e+09
10.54276 -2.3626053 0.01869308 11 0.013270031 -0.014911746 -0.15108755 1.6280621e+09
11.598687 -2.5436687 0.034630012 12 0.0024826906 -0.015063412 -0.23739915 1.6280621e+09
12.611905 -2.7777045 0.046074811 13 0.0033621776 -0.012736634 -0.24151652 1.6280621e+09
13.608355 -3.0030529 0.092438594 14 0.015223414 -0.07890936 -0.20424803 1.6280621e+09
14.640434 -3.1984599 0.15929763 15 0.013281159 -0.061361164 -0.16258611 1.6280621e+09
15.666488 -3.3484018 0.22002113 16 0.014944402 -0.06106694 -0.17330448 1.6280621e+09
16.693672 -3.5535464 0.30034092 17 0.016279697 -0.063608192 -0.21475814 1.6280621e+09
17.687323 -3.7566202 0.39801148 18 0.0078220302 -0.065040037 -0.20472744 1.6280621e+09
18.817274 -3.9882395 0.47357935 19 0.0018389926 -0.066050522 -0.18926536 1.6280621e+09
19.879662 -4.1614242 0.53959024 20 -0.0078499792 -0.070593186 -0.18269509 1.6280621e+09
20.976414 -4.3392568 0.60679537 21 -0.004892074 -0.080593705 -0.17525907 1.6280621e+09
22.031012 -4.5064669 0.65480655 22 -0.014896707 -0.046302386 -0.19815812 1.6280621e+09
23.057526 -4.771235 0.68884963 23 -0.017015465 -0.053501479 -0.37289396 1.6280621e+09
23.84713 -5.1924229 0.67698437 24 -0.01770545 -0.020689998 -0.57366604 1.6280621e+09
24.733711 -5.7412996 0.6937297 25 -0.018733792 -0.01905464 -0.71681738 1.6280621e+09
25.267914 -6.2247443 0.71317762 26 -0.02777461 -0.029809177 -0.93080372 1.6280621e+09
25.854774 -7.0678082 0.73383617 27 0.0084630521 0.002947801 -1.0190123 1.6280621e+09
26.332108 -7.9960732 0.72484547 28 0.020559501 0.0033895609 -1.1587189 1.6280621e+09
26.778717 -8.7880325 0.68438619 29 0.024162749 0.0013594413 -0.94230062 1.6280621e+09
27.237991 -9.3017006 0.70029134 30 0.021962678 -0.0044831177 -0.71755159 1.6280621e+09
27.692419 -9.6408806 0.69892752 31 0.026762085 -0.0089296531 -0.50139201 1.6280621e+09
28.202419 -9.8667421 0.71566814 32 0.026762407 -0.013609095 -0.28286633 1.6280621e+09
28.756018 -9.987649 0.71423382 33 0.02704253 -0.017054552 -0.061783578 1.6280621e+09
28.69113 -9.9813185 0.70650637 34 0.011891293 -0.021148765 0.19366908 1.6280621e+09
28.2983 -10.113084 0.70364225 35 0.0046113543 -0.020844979 0.42643392 1.6280621e+09
27.941998 -10.320857 0.69575167 36 -0.0028757979 -0.017098345 0.64946413 1.6280621e+09
27.598007 -10.633519 0.68924278 37 -0.0068445816 -0.013307147 0.88727331 1.6280621e+09
27.364071 -10.965714 0.68918699 38 -0.0092399418 -0.010369763 1.100575 1.6280621e+09
27.202967 -11.3214 0.69876826 39 -0.012325917 -0.0090910327 1.3056686 1.6280621e+09
27.113991 -11.770832 0.69038051 40 -0.01255846 -0.0046203658 1.5180277 1.6280621e+09
27.07299 -12.791399 0.66404223 41 -0.011661959 -0.0036202548 1.4423727 1.6280621e+09
26.94722 -13.499602 0.65948898 42 -0.010482011 -0.0041405475 1.2298288 1.6280621e+09
26.726503 -13.999868 0.66283149 43 -0.0079332599 -0.0048281918 1.0102341 1.6280621e+09
26.468988 -14.386347 0.67345577 44 -0.0065102936 -0.0032773605 0.80842453 1.6280621e+09
26.124266 -14.691399 0.66526002 45 -0.0045244251 -0.0050400207 0.60307163 1.6280621e+09
25.721277 -14.942662 0.66918528 46 -0.0040909904 -0.0055803405 0.39550301 1.6280621e+09
24.744032 -15.270696 0.67304265 47 -0.0050417921 -0.0045901705 0.50801271 1.6280621e+09
24.432549 -15.475049 0.66532069 48 -0.002579595 -0.0039234981 0.72664857 1.6280621e+09
24.173859 -15.735658 0.66356939 49 -0.0078038587 -0.0017889267 0.94602376 1.6280621e+09
23.976027 -16.050306 0.66834098 50 -0.0083090886 0.0011006594 1.1651924 1.6280621e+09
23.841095 -16.383627 0.66487455 51 -0.0070205373 -0.001283532 1.4044682 1.6280622e+09
24.019588 -15.408497 0.66015762 52 -0.006095082 -0.0022898652 1.1937733 1.6280622e+09
24.181303 -15.046211 0.67089605 53 -0.0063888356 -0.0045048986 0.99320436 1.6280622e+09
24.413319 -14.730153 0.6655134 54 -0.0037105274 -0.0078474134 0.79255843 1.6280622e+09
24.709761 -14.449073 0.66814083 55 -0.0026097202 -0.0084887231 0.58127618 1.6280622e+09
25.073492 -14.245502 0.67143667 56 -0.0033815056 -0.0088261282 0.3666518 1.6280622e+09
26.059862 -13.98067 0.67194074 57 -0.0025050223 -0.0086064423 0.45940274 1.6280622e+09
26.422443 -13.756284 0.66946042 58 -0.0022889478 -0.010252547 0.71526927 1.6280622e+09
26.703241 -13.46469 0.6688481 59 -0.0049055107 -0.0098461406 0.97267717 1.6280622e+09
26.894306 -13.134923 0.670192 60 -0.0080286786 -0.0078960564 1.2295032 1.6280622e+09
26.995886 -12.75441 0.6687175 61 -0.0091819931 -0.0066065993 1.4781336 1.6280622e+09
26.978809 -12.332199 0.67786658 62 -0.010998427 -0.0066097309 1.6852043 1.6280622e+09
26.933701 -11.752838 0.68532437 63 -0.012022626 -0.0081509938 1.4430844 1.6280622e+09
27.042645 -11.287744 0.68969142 64 -0.0076559093 -0.0036528681 1.2341516 1.6280622e+09
26.888954 -11.623891 0.67801392 65 -0.002227138 -0.0091794292 0.96039116 1.6280622e+09
26.69491 -11.923274 0.67633015 66 0.0040814653 -0.0089889299 0.75941521 1.6280622e+09
25.938385 -12.640326 0.67727286 67 -0.00077274744 -0.0063588242 0.78386647 1.6280622e+09
25.357876 -13.161774 0.67043227 68 -0.00082917517 -0.0055650109 0.57148582 1.6280622e+09
24.45575 -13.709159 0.65704542 69 -0.003613689 -0.0046271193 0.64544183 1.6280622e+09
23.940235 -14.184623 0.67189109 70 -0.0031924958 -0.0037664673 0.85456675 1.6280622e+09
23.27738 -14.9978 0.66916972 71 0.0010532553 -0.0014317902 0.8003453 1.6280622e+09
