# .PCD v0.7 - Point Cloud Data file format
VERSION 0.7
FIELDS x y z intensity roll pitch yaw time
SIZE 4 4 4 4 4 4 4 8
TYPE F F F F F F F F
COUNT 1 1 1 1 1 1 1 1
WIDTH 90
HEIGHT 1
VIEWPOINT 0 0 0 1 0 0 0
POINTS 90
DATA ascii
0 0 0 0 -0.011416926 2.1607848e-05 -3.8681211e-23 1.6280589e+09
1.0417938 0.010438399 0.011994773 1 -0.012547499 -0.0018748101 -0.0032269219 1.6280589e+09
2.0730624 0.024623996 0.014338449 2 -0.013069171 -0.0044674887 -0.012277269 1.6280589e+09
3.1575315 0.031698935 0.0070296568 3 -0.013106156 -0.003660654 -0.015850313 1.6280589e+09
4.1897988 0.034398254 0.001602308 4 -0.014186095 -0.0038885253 -0.017859671 1.6280589e+09
5.2609863 0.050357565 -0.0099691302 5 -0.015102136 -0.0038255546 0.0061823186 1.6280589e+09
6.3530169 0.093931183 -0.0085243145 6 -0.016122865 -0.0052575315 0.031674564 1.6280589e+09
7.4358835 0.15396591 -0.006609526 7 -0.016556326 -0.0062748729 0.05450552 1.6280589e+09
8.5431547 0.25035566 -0.0067812083 8 -0.015935672 -0.0051306933 0.075093895 1.6280589e+09
9.6980124 0.35925347 -0.016524797 9 -0.017829129 -0.0022034661 0.08399111 1.6280589e+09
10.796812 0.49537262 -0.012156162 10 -0.018455379 -0.0047382577 0.074691482 1.6280589e+09
11.917098 0.59050155 0.088857248 11 -0.013327968 0.039274935 0.023279019 1.6280589e+09
13.029296 0.61289316 -0.0068948274 12 -0.017051 -0.0068329158 -0.040159669 1.6280589e+09
14.219667 0.56031144 -0.0019397377 13 -0.024469892 0.0055429162 -0.086078152 1.6280589e+09
15.290503 0.50290257 -0.015330392 14 -0.051675614 0.01880629 -0.11977924 1.6280589e+09
16.43317 0.38247359 -0.0063610994 15 -0.047468796 -0.022355229 -0.13814387 1.6280589e+09
17.52495 0.25551668 0.0006234342 16 -0.029686529 -0.017672123 -0.18298359 1.6280589e+09
18.527607 0.07943017 0.047356356 17 -0.02767472 -0.012984714 -0.26331532 1.6280589e+09
19.526812 -0.24068882 0.040689457 18 -0.018113995 -0.01612051 -0.30581695 1.6280589e+09
20.515675 -0.52511424 0.050990075 19 -0.013871109 -0.015347951 -0.30253789 1.6280589e+09
21.644466 -0.82555211 0.072564937 20 -0.013535318 -0.020085964 -0.25496566 1.6280589e+09
22.647215 -1.0522537 0.079145268 21 -0.019911271 -0.016231863 -0.38156947 1.6280589e+09
23.571913 -1.5960718 0.0900397 22 -0.014794825 -0.01984779 -0.59429032 1.6280589e+09
24.381714 -2.2628305 0.12446704 23 0.0014041845 -0.007240898 -0.74653125 1.6280589e+09
25.108749 -3.0241599 0.096964791 24 0.026261421 0.020020239 -0.87196499 1.6280589e+09
25.805746 -3.8255842 0.07812959 25 0.036828645 0.017190611 -0.88489532 1.6280589e+09
26.646961 -4.6323967 0.054374654 26 0.044563081 0.017073717 -0.68071407 1.6280589e+09
27.220716 -5.0110779 0.025804346 27 0.052542094 0.014478778 -0.4512645 1.6280589e+09
27.847193 -5.2539735 0.036363121 28 0.046937734 -0.0042252289 -0.21884957 1.6280589e+09
28.850117 -5.5536113 0.040849108 29 0.043882638 -0.0079876985 -0.14423102 1.6280589e+09
29.77107 -5.8483844 0.040677991 30 0.037620164 0.00095546257 -0.36057028 1.6280589e+09
30.454521 -6.1840982 0.013366194 31 0.038513161 0.015652748 -0.6193434 1.6280589e+09
30.973448 -6.5908198 0.037148591 32 0.012064097 0.0093687493 -0.84432518 1.6280589e+09
31.365232 -7.1045871 0.04111544 33 0.00010276496 -0.020599186 -1.0830071 1.6280589e+09
31.878838 -8.0627584 0.019198222 34 0.0099973772 0.0039910641 -1.1995723 1.6280589e+09
32.345322 -9.1118784 0.022897663 35 0.026113046 0.0046989117 -1.0982684 1.6280589e+09
32.959412 -10.093676 -0.00014878882 36 0.016768849 0.001998106 -0.94985288 1.6280589e+09
33.666237 -10.906829 0.0080625657 37 0.016677605 0.00020222439 -0.74045306 1.6280589e+09
34.67532 -11.694453 -0.00060083385 38 0.0098960623 -0.0043157786 -0.53917235 1.6280589e+09
35.59985 -12.229398 0.0088673467 39 0.010622286 -0.0036761316 -0.52550298 1.6280589e+09
36.521133 -12.728703 -0.0073754364 40 0.0067040594 0.0011221007 -0.51015568 1.6280589e+09
37.551762 -13.299427 -0.0077317115 41 0.011843432 -0.0068527795 -0.48429188 1.6280589e+09
38.638237 -13.973848 0.010882478 42 0.011792356 -0.0069000083 -0.68533039 1.6280589e+09
39.317822 -14.639099 0.0068165543 43 0.011799961 -0.00096840033 -0.96407855 1.6280589e+09
39.723057 -15.316419 0.0086638238 44 0.011741607 0.0016827054 -1.2011658 1.6280589e+09
40.069836 -16.286814 0.0057433625 45 0.0084640728 0.0081916805 -1.4438171 1.6280589e+09
40.228859 -17.643513 -0.011576685 46 0.012173665 0.0031152715 -1.4621321 1.6280589e+09
40.363411 -18.669821 -0.014802638 47 0.010916308 0.0049380846 -1.4450481 1.6280589e+09
40.549595 -19.930731 -0.028506551 48 0.011205331 0.0038658779 -1.426057 1.6280589e+09
40.713772 -20.931234 -0.035483252 49 0.011687283 0.0027555358 -1.4061041 1.6280589e+09
40.893894 -21.938301 -0.030882766 50 0.012854868 0.0020251949 -1.388405 1.6280589e+09
41.105892 -22.953087 -0.030360769 51 0.012263213 0.00072782446 -1.3703711 1.6280589e+09
41.347107 -24.060205 -0.031798162 52 0.012612436 -0.00084336486 -1.1965249 1.6280589e+09
41.586411 -24.556484 -0.033182822 53 0.013409695 -0.0059853108 -0.9920454 1.6280589e+09
42.100117 -25.091774 -0.028176755 54 -0.00032919992 -0.012521904 -1.1956267 1.6280589e+09
42.220638 -25.749691 -0.032611188 55 -0.0010014697 0.0033448925 -1.499945 1.6280589e+09
42.239529 -26.84057 -0.040340517 56 -0.0035076877 0.0078164544 -1.5861955 1.6280589e+09
42.218769 -27.880693 -0.034333173 57 -0.003429462 0.0040148604 -1.632642 1.6280589e+09
42.108715 -29.069925 -0.058063094 58 0.0087238643 0.014413374 -1.6279891 1.628059e+09
42.059483 -30.285177 -0.07988064 59 0.002456011 0.009922321 -1.7482576 1.628059e+09
41.81118 -31.289614 -0.085909262 60 0.015291488 0.023281276 -1.7888938 1.628059e+09
41.605103 -32.282387 -0.14327072 61 0.009073087 0.017055942 -1.7191033 1.628059e+09
41.496937 -33.404236 -0.15400372 62 0.0010370293 -0.058013778 -1.5534121 1.628059e+09
41.653492 -34.602554 -0.2845163 63 0.015557782 0.010346804 -1.4980942 1.628059e+09
41.647587 -35.752457 -0.21185306 64 0.007579586 0.016604191 -1.6125808 1.628059e+09
41.563263 -36.89785 -0.21417676 65 0.00028161993 0.017743679 -1.6978284 1.628059e+09
41.491356 -38.028721 -0.20526262 66 -0.001161429 0.014002433 -1.6249484 1.628059e+09
41.43483 -39.075863 -0.22385107 67 0.00015657747 0.015080024 -1.6108947 1.628059e+09
41.394325 -40.168186 -0.24763235 68 -0.0023111212 -0.0025680875 -1.6335378 1.628059e+09
41.39119 -41.183144 -0.25176623 69 -0.006765211 0.023574125 -1.5827113 1.628059e+09
41.391903 -42.23933 -0.2643961 70 -0.00026579079 0.01182546 -1.5042119 1.628059e+09
41.484531 -43.32877 -0.28302518 71 0.0023014175 0.013410452 -1.4946282 1.628059e+09
41.589527 -44.364491 -0.2893869 72 -0.00059947179 0.013932187 -1.4810841 1.628059e+09
41.702847 -45.4133 -0.30978706 73 -0.0023282312 0.014563251 -1.4632243 1.628059e+09
41.81057 -46.51062 -0.33135214 74 -0.0057565202 0.016106408 -1.4647861 1.628059e+09
41.909832 -47.68644 -0.35379153 75 -0.0079664188 0.014420746 -1.5549191 1.628059e+09
41.942661 -48.706089 -0.37486312 76 -0.010397495 0.014073928 -1.5985211 1.628059e+09
41.947083 -49.782841 -0.39463064 77 -0.011984119 0.015257664 -1.5861613 1.628059e+09
41.956005 -50.911907 -0.41904536 78 -0.010259128 0.014889858 -1.5561792 1.628059e+09
42.00119 -51.931282 -0.42364269 79 -0.008422411 0.013787029 -1.5239226 1.628059e+09
42.082886 -53.000988 -0.44348064 80 -0.0072289896 0.012649671 -1.4788632 1.628059e+09
42.239002 -54.060532 -0.4504813 81 -0.0065834811 0.0086412234 -1.3709781 1.628059e+09
42.512764 -55.027515 -0.46287334 82 -0.0053751008 0.007057271 -1.2286428 1.628059e+09
42.942978 -56.064667 -0.4925186 83 -0.007393423 0.0079708723 -1.2688012 1.628059e+09
43.248306 -57.179249 -0.49342269 84 -0.0044002752 0.0037690583 -1.3738108 1.628059e+09
43.486111 -58.497726 -0.50157136 85 -0.0041973707 -0.0011120703 -1.4186391 1.628059e+09
43.718708 -59.507317 -0.51440686 86 -0.0054977625 -0.0022251816 -1.3432065 1.628059e+09
43.957745 -60.568165 -0.50593001 87 -0.0032032218 -0.00099734811 -1.3619342 1.628059e+09
44.208591 -61.685329 -0.52199912 88 -0.0052884985 0.0040996992 -1.3680707 1.628059e+09
44.453873 -62.8312 -0.5326426 89 -0.0030293725 0.0034597071 -1.3719505 1.628059e+09
